7.438199901580799800e-02,8.914599800109899996e-02,8.221199893951401660e-02,7.583599472045900181e-02,1.412300028800960172e-01,1.602200069427489604e-01,7.518999958038298514e-02,7.972100162506100263e-02,1.414709963798519987e-01,1.476740040779109808e-01,8.117900276184099317e-02,8.428899431228599470e-02,7.929799938201899379e-02,8.001699829101600880e-02,8.044699811935400457e-02,7.670699739456199318e-02,7.834200048446700315e-02,9.263899707794200078e-02,8.180699729919400920e-02,8.187300348281899287e-02,8.617799663543700139e-02,7.786200428009000529e-02,7.170800352096599883e-02,6.960100317001301218e-02,6.826600217819200900e-02,7.679399633407599235e-02,8.621399784088100426e-02,9.814600133895899636e-02,7.751200580596899481e-02,1.117589988708500154e-01,1.431860008239750348e-01,7.840500259399400818e-02,1.223969974517819942e-01,9.806700134277300529e-02,8.429700517654399594e-02,1.043620028495789859e-01,1.030530014038090053e-01,9.848599815368698496e-02,8.498200559616099492e-02,7.932500028610199594e-02,1.300599970817569728e-01,8.861400270462001239e-02,8.149099731445298700e-02,8.235600376129199873e-02,8.385800504684400025e-02,1.090469994544980142e-01,1.046420016288760052e-01,7.669200086593598586e-02,1.134529986381530159e-01,1.375330009460450365e-01,7.772499704360999462e-02,8.685800218582200027e-02,8.863799953460700654e-02,7.427399539947500406e-02,7.621499681472800047e-02,1.164549984931950027e-01,1.041270055770869979e-01,1.141209998130799791e-01,9.147700452804601035e-02,8.479799413680998155e-02,9.101699972152700602e-02,9.972800397872901013e-02,9.236300373077398207e-02,9.267299556732198906e-02,7.597999954223599861e-02,7.187199974060100305e-02,7.414700174331700921e-02,8.317200326919600706e-02,8.065100097656301148e-02,1.000150003433229878e-01,1.024670042991639857e-01,8.520199441909799554e-02,1.085439958572389924e-01,1.192629971504210046e-01,1.460570015907289854e-01,1.641949930191040075e-01,1.554770030975339834e-01,1.184170045852660086e-01,1.244210042953490108e-01,1.151549973487849959e-01,1.199559965133670109e-01,1.092449941635130067e-01,1.128660001754760028e-01,1.337019958496090122e-01,9.790399456024199976e-02,8.162700319290201734e-02,1.224739947319029992e-01,1.190920033454899857e-01,1.092899956703190095e-01,1.317639985084529952e-01,1.091020026206970112e-01,1.321139969825739779e-01,1.191990056037900009e-01,1.103680052757260027e-01,1.141349949836730077e-01,1.569069900512700122e-01,1.041430034637450125e-01,8.015400552749600560e-02,8.839899682998698938e-02,8.778800153732300993e-02,1.141420044898989877e-01,1.223590054512019992e-01,1.066460051536560066e-01,1.025970020294190016e-01,1.059719958305360005e-01,7.684499406814600253e-02,9.610200309753401393e-02,1.131950058937069986e-01,1.374710001945499971e-01,1.065589942932130135e-01,1.176870026588440060e-01,7.174599552154500848e-02,7.643299484252900899e-02,6.914300107955899388e-02,8.215099954605099841e-02,1.144529976844790159e-01,8.962799692153898545e-02,1.295579948425290007e-01,1.347669997215270032e-01
6.817700052261399524e-02,7.734100008010899585e-02,1.321159996986390195e-01,8.689400339126600314e-02,1.263330020904540052e-01,1.249570050239559998e-01,6.840800428390500509e-02,1.305699982643130364e-01,1.185930051803589930e-01,9.224800252914398813e-02,1.301080026626589836e-01,1.668619909286500058e-01,8.956799888610798843e-02,8.119800472259498803e-02,2.027930059432979659e-01,1.138680019378660174e-01,7.585399532318100324e-02,8.321999692916899616e-02,1.060390033721920061e-01,9.786899471282999030e-02,1.189109959602360073e-01,1.011210002899169819e-01,9.353200578689600808e-02,8.709999704361000294e-02,7.260799789428699913e-02,1.007890024185180006e-01,8.159100198745701527e-02,1.018829979896550136e-01,8.565999650955201383e-02,6.965899848937999461e-02,1.005659976005549988e-01,7.075399541854900110e-02,9.759999895095801403e-02,9.901999616622901568e-02,9.531400585174600038e-02,8.690499448776199676e-02,8.977400445938098217e-02,9.598499917984000540e-02,8.538799667358400181e-02,9.253700160980200817e-02,7.122700595855699368e-02,7.230699443817101280e-02,7.524199867248500262e-02,8.907200479507400293e-02,1.015289940834050025e-01,1.372020044326779931e-01,1.088799991607670020e-01,7.245099925994899492e-02,9.004899644851700746e-02,8.044799947738599799e-02,7.868500137329099975e-02,9.882400417327900921e-02,9.504199409484902217e-02,9.632699871063198083e-02,7.543800258636498834e-02,7.683799648284901640e-02,8.215999984741199913e-02,9.541900539398200098e-02,8.642000341415399800e-02,9.718399429321299132e-02,8.353499555587799719e-02,9.351200246810899286e-02,9.204899454116798052e-02,9.275700235366800273e-02,8.416799688339200725e-02,7.978599452972399975e-02,8.095100307464599132e-02,8.428800487518299522e-02,8.425399446487401300e-02,8.379500293731699523e-02,9.561000251770000735e-02,9.092699670791599964e-02,8.791000032424899080e-02,1.275530018806459998e-01,1.597519912719730373e-01,1.819109954833980081e-01,1.624379911422729750e-01,1.124030032157899844e-01,8.461699867248499707e-02,1.345539965629580226e-01,1.191260018348690025e-01,1.158929982185360058e-01,1.140810050964359973e-01,1.343249955177310273e-01,6.623499774932899153e-02,1.156320013999940083e-01,1.480420031547550197e-01,8.722600126266498444e-02,9.264200115203900798e-02,1.114460029602050012e-01,1.219409980773929897e-01,1.550620117187500036e-01,1.159510054588320099e-01,1.159420051574709815e-01,1.346270003318790209e-01,1.738559999465940087e-01,8.399399900436398114e-02,9.285799646377600192e-02,8.486500167846698639e-02,1.199430027008060035e-01,1.843780078887939933e-01,1.261719980239869865e-01,1.218269982337950169e-01,1.188910045623779860e-01,9.662800216674800879e-02,8.792599821090700540e-02,1.002430000305179897e-01,8.090500020980799512e-02,7.855400228500399040e-02,7.907400512695299255e-02,7.623399877548199532e-02,7.559299850463900572e-02,1.126809992790219900e-01,8.507099533081098619e-02,1.027319946289060176e-01,1.230840005874630078e-01,1.313000001907350112e-01,1.335560002326969808e-01,1.338930048942569839e-01
6.806799554824800869e-02,8.836800241470298134e-02,1.751560010910030440e-01,7.385299587249800901e-02,1.514580049514769877e-01,9.768900060653699924e-02,6.610099458694500274e-02,1.165959992408750062e-01,1.303030052185060184e-01,7.681500101089500099e-02,2.005339899063109943e-01,1.670199909210200451e-01,9.225800418853800922e-02,8.067399644851701301e-02,1.150260009765630004e-01,1.229370036125180116e-01,1.027540006637569919e-01,1.395360031127930167e-01,9.226899528503400283e-02,1.276539959907529997e-01,8.205999517440799862e-02,7.052899980544999337e-02,8.145200395584099862e-02,8.329999828338600920e-02,7.790999794006300827e-02,8.657499933242800150e-02,8.516300106048600715e-02,9.071100139617900571e-02,1.062289991378779913e-01,9.669800186157199995e-02,6.652299547195399121e-02,7.330500268936199215e-02,8.518200302124000201e-02,9.814499998092700295e-02,8.598000192642200890e-02,9.001499795913701918e-02,9.197399997711198927e-02,9.198600435256999719e-02,1.743649997711179678e-01,7.893000030517600962e-02,1.103689947128300014e-01,8.614299678802499194e-02,1.059790053367610091e-01,1.576999940872190198e-01,1.697789945602420358e-01,1.243510046005249919e-01,1.123660006523130167e-01,1.301059999465939976e-01,8.804500484466599997e-02,8.955799722671499430e-02,7.909000301361100715e-02,8.621399784088100426e-02,8.360300445556599624e-02,7.148100519180300427e-02,8.743900442123399286e-02,1.028319993019099904e-01,9.102600002288800674e-02,7.722800159454298874e-02,9.275600099563600931e-02,9.363099718093902124e-02,1.008209981918340020e-01,8.601899528503399728e-02,7.551900529861499400e-02,9.214899921417200879e-02,9.772299909591698752e-02,1.195030012130739866e-01,1.299430050849910145e-01,1.484929957389830024e-01,1.384679951667789899e-01,9.284400129318200190e-02,8.045200490951499861e-02,1.016140022277830096e-01,1.354569950103760023e-01,1.217049994468690083e-01,1.039799966812130078e-01,1.763200082778930144e-01,1.623859920501710130e-01,9.527700328826900489e-02,8.481300258636499667e-02,8.927100086212201580e-02,1.363889970779419980e-01,1.157349982261659943e-01,1.182529964447019827e-01,8.405299568176301250e-02,7.692300462722800880e-02,9.745099925994900325e-02,9.833000087737998884e-02,8.277199649810799975e-02,9.841499710083000119e-02,9.881500387191798074e-02,7.998299980163602052e-02,1.156260051727300148e-01,1.022190012931819963e-01,8.649100446701100953e-02,8.901199483871501117e-02,9.263999843597402195e-02,1.056530036926269928e-01,9.828800344467202021e-02,9.725499534606900365e-02,1.074170031547549836e-01,1.555110015869139994e-01,1.285329976081849845e-01,9.488100194930999820e-02,9.726000213622999768e-02,1.100989975929260040e-01,8.470100545883200993e-02,8.958299541473400962e-02,9.242799663543697919e-02,7.318400526046799082e-02,7.142700338363601464e-02,7.466800594329800478e-02,9.062699460983301980e-02,1.362880029678339988e-01,1.150659956932070099e-01,1.151969947814940193e-01,1.434090056419369819e-01,1.508780040740970163e-01,1.300419964790340277e-01,1.340220012664800064e-01
6.871899747848499163e-02,2.045470037460330182e-01,1.478869953155519945e-01,8.759600305557301014e-02,1.143410005569460014e-01,7.984600448608401846e-02,6.690199756622298988e-02,9.902199888229400171e-02,1.085099973678590041e-01,7.725799465179399028e-02,1.348779954910280243e-01,1.890399971008299707e-01,8.486400032043499297e-02,8.877100133895900191e-02,8.841699743270901857e-02,9.039700412750199809e-02,1.801490106582639972e-01,1.739860095977779908e-01,1.086280026435850060e-01,1.416639962196349911e-01,1.560760059356690044e-01,7.167699718475299686e-02,9.021400594711299903e-02,1.091839947700500163e-01,1.082619943618769870e-01,9.221500539779702021e-02,1.010630049705509986e-01,1.104939975738530172e-01,9.190999650955199163e-02,8.816099548339799419e-02,1.040380039215089841e-01,7.706900024414099770e-02,6.609000349044799605e-02,8.410799884796101022e-02,7.965599679946898382e-02,7.898500347137500655e-02,8.926300191879298074e-02,9.914399766921998258e-02,7.894499683380100385e-02,8.491200590133700377e-02,1.512000002861020320e-01,1.090279974937440194e-01,1.047969975471499809e-01,1.724439897537229927e-01,1.910539903640749992e-01,1.237399973869319908e-01,8.468300485611000850e-02,8.143500471115099060e-02,8.928100252151500993e-02,1.014730014801030061e-01,9.010600233078001897e-02,9.525699996948198967e-02,9.105899715423600160e-02,9.243100070953401415e-02,9.959700489044200078e-02,8.335600280761699954e-02,9.111800575256299994e-02,1.115799942016599960e-01,8.368100309371899470e-02,9.375399732589699553e-02,9.927800083160399913e-02,7.775799417495700416e-02,1.053669967651370137e-01,1.410800018310550130e-01,1.194000043869020006e-01,1.304279961586000125e-01,1.418730058670040206e-01,1.612669982910159838e-01,1.615220108032230373e-01,1.150049962997440195e-01,1.223279991149899965e-01,1.081569948196410141e-01,1.727380075454710284e-01,1.181759991645810054e-01,8.112299823761000284e-02,1.190939941406250063e-01,1.319909968376160037e-01,8.951299571990999071e-02,7.917100572586098506e-02,7.788800382614100015e-02,7.404799842834498824e-02,9.065699958801300140e-02,9.988600397110002083e-02,7.802299642562900150e-02,7.383100175857500169e-02,7.970600509643598064e-02,6.776800537109399503e-02,7.954899454116799717e-02,7.888800287246700016e-02,7.542399549484299359e-02,8.052800083160401023e-02,8.469499731063799552e-02,8.132299566268900992e-02,7.538700485229500592e-02,8.069600248336801507e-02,1.237000026702880090e-01,1.302330055236819994e-01,9.110900545120199923e-02,7.382599496841399378e-02,6.977700376510599656e-02,1.385080018043520211e-01,1.328519978523249878e-01,8.320900583267200334e-02,1.191499986648559967e-01,1.220310010910029969e-01,7.774000549316399666e-02,8.311299467086800952e-02,7.929200315475500027e-02,9.709099912643399943e-02,1.187770047187810124e-01,9.417200469970700427e-02,1.206579961776730187e-01,1.316190042495730128e-01,1.188229956626890155e-01,1.354079999923710198e-01,1.419340052604680102e-01,1.544780054092410038e-01,1.404740014076230059e-01,1.776530065536500169e-01
6.299000167846699472e-02,1.423200049400329958e-01,1.636669912338259980e-01,1.073059954643249964e-01,8.191199684143100901e-02,7.178999567031900397e-02,7.594099426269500241e-02,7.311799907684299327e-02,6.685699605941798629e-02,1.392650046348570259e-01,1.230359950065609970e-01,8.321999692916899616e-02,7.186400079727199575e-02,7.021500253677399883e-02,9.764700317382800365e-02,8.688099765777600181e-02,2.038379945755000033e-01,1.238799967765810001e-01,1.125559964179990019e-01,1.183540024757390036e-01,1.012679972648620058e-01,7.117599630355798956e-02,7.349499845504800510e-02,1.217770018577579855e-01,9.978399658203100653e-02,9.088499927520800326e-02,8.264700555801400561e-02,8.247399711608900674e-02,8.022900009155299605e-02,8.017499828338602030e-02,8.820900106430100418e-02,9.265100145339998094e-02,8.271099710464500931e-02,7.264099502563500788e-02,8.915000343322800058e-02,9.337400579452499738e-02,9.055999898910500889e-02,7.441399478912399945e-02,1.061029949188230098e-01,1.043509998321529991e-01,1.131820001602169973e-01,9.173399591445900725e-02,1.034279980659490034e-01,1.212260046005250030e-01,1.165949978828429850e-01,8.908000373840301023e-02,7.371100568771400685e-02,7.871899986267101579e-02,1.119920053482060113e-01,1.091630020141600016e-01,1.439549961090089703e-01,8.402300262451199708e-02,8.898899936676001043e-02,8.552600526809699122e-02,1.123330035209659933e-01,1.249470033645630057e-01,8.972700023651102030e-02,1.023639955520630057e-01,7.977799558639499244e-02,9.982899808883700932e-02,9.471400165557898598e-02,7.595999622344999647e-02,9.694199943542501641e-02,1.306929984092710106e-01,1.672839918136599935e-01,1.400919952392579715e-01,1.452080049514770099e-01,1.239900031089779947e-01,1.492720046043399806e-01,1.125080027580259850e-01,9.714700365066498977e-02,8.629500055313098217e-02,1.549109973907469850e-01,1.626070060729979949e-01,9.391700410842900026e-02,1.206589975357060113e-01,1.407849946022030063e-01,1.084360041618350062e-01,1.107929983139040037e-01,1.207289972305300024e-01,7.717700386047400551e-02,6.628799819946300242e-02,8.020199918746899470e-02,1.224810042381290071e-01,8.236999893188499955e-02,8.220099592208900130e-02,8.915000343322800058e-02,8.648200416564898185e-02,7.632099771499600838e-02,7.772599840164200191e-02,1.109800019264220033e-01,8.028599405288701363e-02,7.943799877166700385e-02,7.526899957656900397e-02,1.011150040626530161e-01,1.545990028381349912e-01,8.656299495696999358e-02,7.885400438308699800e-02,1.547539987564089947e-01,9.841900253295900181e-02,1.328920044898990183e-01,1.302140035629270054e-01,8.170400047302199542e-02,1.497870006561279888e-01,1.087809958457950227e-01,6.970099592208900408e-02,8.664000415801999255e-02,7.627300405502299152e-02,7.589500331878699935e-02,1.231789984703059865e-01,1.240680017471309932e-01,1.383219995498660149e-01,1.199549951553340182e-01,1.584320106506350023e-01,1.758660116195679968e-01,1.349780001640319971e-01,1.531019964218139906e-01,1.412760057449339857e-01,1.253350057601930190e-01
5.800199890136700787e-02,1.585000076293950344e-01,1.603790082931519922e-01,1.302159943580630252e-01,1.290820040702820304e-01,7.834300184249899657e-02,8.161000394821200932e-02,8.291000509262101692e-02,1.287419953346249923e-01,1.386899986267089990e-01,9.821700239181500869e-02,7.142500066757200006e-02,8.950200462341299790e-02,8.383399629592901137e-02,1.008119978904720021e-01,1.213879981040949935e-01,1.160479941368099815e-01,1.481130042076109765e-01,1.329029955863950119e-01,1.069150009155270115e-01,9.834100389480600335e-02,6.848999643325799636e-02,7.922000074386599533e-02,1.093439974784849861e-01,6.744799995422401384e-02,7.922900104522699605e-02,8.203000211715701095e-02,7.843699836730999575e-02,1.020929970741269871e-01,9.681699657440200057e-02,1.077670016288759941e-01,6.918199443817101002e-02,6.890600109100299131e-02,8.178199911117599308e-02,9.797100210189800540e-02,8.528399848937999461e-02,9.216499710082999564e-02,1.338230051994320213e-01,1.024030008316040158e-01,1.402329959869380027e-01,1.079409995079040202e-01,8.122500562667799018e-02,1.134499945640560087e-01,1.344530024528500234e-01,1.090840020179750097e-01,7.147900247573898969e-02,8.415099763870199923e-02,1.189530053138729976e-01,1.080889978408809821e-01,8.293699407577499738e-02,1.137380042076110015e-01,7.793900156021101033e-02,8.066000127792401220e-02,1.689509906768800196e-01,8.616199874877901455e-02,1.087729969024659876e-01,7.925199651718099758e-02,7.775899553298999678e-02,8.050699615478500160e-02,8.238399410247800037e-02,7.668099784851101219e-02,7.822399520873998813e-02,1.006109991073610016e-01,1.629420080184940112e-01,1.892740049362179877e-01,1.032030024528500095e-01,1.655339994430540251e-01,1.767269887924189931e-01,1.037799992561340007e-01,1.275190033912659837e-01,1.409670033454900051e-01,7.876400136947600550e-02,1.505080022811889906e-01,1.203359999656680029e-01,9.022599840164201301e-02,1.405499973297120175e-01,1.391089954376220073e-01,8.215999984741199913e-02,1.662200012207030175e-01,1.550279893875119996e-01,6.985600376129198763e-02,1.360819973945620043e-01,7.116799736023000922e-02,7.573999547958400191e-02,8.668300294876100931e-02,7.192299747467001403e-02,8.007500553131098597e-02,8.879599952697801724e-02,8.845899486541698720e-02,8.612200403213500499e-02,7.380500221252399295e-02,7.465299749374400273e-02,7.282200241088900017e-02,9.140500211715700540e-02,7.774299764633200993e-02,6.977299833297700982e-02,7.582799577712999450e-02,7.578000211715700540e-02,9.470700407028199985e-02,1.354980030059810270e-01,1.101830043792719899e-01,9.927699947357200572e-02,8.281300449371299666e-02,1.172019996643069856e-01,6.937899971008300304e-02,5.058709764480590065e-02,7.626799726486199749e-02,6.931499624252299152e-02,7.977400207519501352e-02,1.486900010108950232e-01,1.447490015029909705e-01,1.650100030899049885e-01,1.618850030899049997e-01,1.567760028839110253e-01,1.314430036544800284e-01,1.176680006980900112e-01,1.316460051536559872e-01,1.729779996871950165e-01,1.549010076522829848e-01
7.624099636077900921e-02,1.118660011291500028e-01,1.443370022773740047e-01,1.916579999923709865e-01,8.409899854660000951e-02,8.616500282287599399e-02,7.559800529479999975e-02,7.536399745941199657e-02,1.398520030975339834e-01,7.266300106048599605e-02,9.513999605178800889e-02,2.149780073165890038e-01,1.491400041580199787e-01,2.049740114212040276e-01,1.986899890899659904e-01,7.586399698257399737e-02,8.036599540710499812e-02,1.601919927597049709e-01,1.117479958534240009e-01,1.114569940567019940e-01,1.833649911880489980e-01,7.930000209808400757e-02,8.415899658203100653e-02,9.298500204086300458e-02,9.008399629592898916e-02,7.065999889373798803e-02,8.934200191497800037e-02,9.247800493240400377e-02,8.659299993515000293e-02,1.131709971427919820e-01,7.898999834060700664e-02,7.167699718475299686e-02,7.433100128173798782e-02,8.502799654006999719e-02,8.842599773406999153e-02,8.771000289917001147e-02,9.863900327682499636e-02,7.634799861907999585e-02,8.576800012588502165e-02,9.509799861907998475e-02,7.947099590301499872e-02,7.175599718093901569e-02,1.393289961814879740e-01,1.107280054092409788e-01,7.632400178909300170e-02,7.279899501800499162e-02,1.162889995574950125e-01,1.691119947433469828e-01,1.388119974136350354e-01,7.691300296783400159e-02,8.993699932098399297e-02,8.272600555419899748e-02,1.414760031700130205e-01,1.623050012588500013e-01,8.247499847412100016e-02,8.586099529266398578e-02,9.140799427032499092e-02,9.599600219726599215e-02,8.669699811935401013e-02,7.550000333785999995e-02,7.681500101089500099e-02,1.448740043640139863e-01,9.489499711990399822e-02,1.703089990615839766e-01,9.416300439834600355e-02,1.184050002098080007e-01,1.259920039176939954e-01,1.349800028800959839e-01,1.288219966888429768e-01,1.953340091705320081e-01,1.599700012207029842e-01,6.948000574111901084e-02,1.400620021820069838e-01,9.260900402069101311e-02,9.778900527954099975e-02,1.394359984397889884e-01,1.401539959907530108e-01,7.841899776458700899e-02,1.448879995346070149e-01,1.246750035285949937e-01,7.456599855423000356e-02,7.105800294876100931e-02,7.733999872207598936e-02,8.293999814987200458e-02,8.390599870681801631e-02,1.411860027313229793e-01,8.085799598693800549e-02,8.080799961090100181e-02,7.458800458908100561e-02,7.336800479888901105e-02,7.328600072860699810e-02,1.451579966545110123e-01,1.110279955863949924e-01,1.180910029411319923e-01,1.237819948196410141e-01,9.660400533676101464e-02,9.749499940872198567e-02,9.718799972534199194e-02,9.218000555038501076e-02,1.314960041046139838e-01,8.103100442886400356e-02,6.207700157165500776e-02,1.279459991455079715e-01,1.145010032653809989e-01,1.285569944381710350e-01,7.084800386428799501e-02,8.863200330734298527e-02,8.920799875259398382e-02,1.246699967384339997e-01,1.312770047187810096e-01,1.123699941635129956e-01,1.566439905166630009e-01,1.289770045280460020e-01,1.417709984779360055e-01,1.481259980201720117e-01,1.283219971656799907e-01,1.321649947166440020e-01,1.197299995422359958e-01,1.568359889984130007e-01
8.886900329589798864e-02,1.501089968681340037e-01,1.832959928512570280e-01,1.515839972496030308e-01,8.427399778366100047e-02,7.462200307846100777e-02,7.439699554443399143e-02,6.301399850845298967e-02,7.227800273895298999e-02,6.895000123977701456e-02,1.299359955787660059e-01,1.518690028190610164e-01,1.381750025749209909e-01,1.878890075683590233e-01,2.030989923477170001e-01,1.699709930419920356e-01,6.834400081634499358e-02,1.232289948463439894e-01,1.173200049400330153e-01,9.555800342559798988e-02,9.061500215530400582e-02,8.782300138473499163e-02,8.479400062561000262e-02,7.241499805450399285e-02,1.126320042610170075e-01,7.861899518966698752e-02,8.130599641799900190e-02,8.539899969101001631e-02,1.401119985580440153e-01,1.121599950790409944e-01,8.353499555587799719e-02,6.989800119399999789e-02,6.408199453353899400e-02,8.143200063705401115e-02,7.889900588989300079e-02,8.579899454116800273e-02,9.247999572753899666e-02,8.235299968719499153e-02,8.833699607849100632e-02,8.285899543762199893e-02,7.099800491332998453e-02,1.165489950180049888e-01,1.104049959182740043e-01,6.951400423049899913e-02,9.510499620437599944e-02,6.998000526428201085e-02,1.323789992332460308e-01,1.185550012588500041e-01,9.852699422836298793e-02,7.464199447631800211e-02,8.261200571060199616e-02,8.107799673080400005e-02,7.521399641037000705e-02,8.253399515152000376e-02,1.174389996528629881e-01,7.925800466537501199e-02,8.064500474929801876e-02,1.005590000152589841e-01,9.121100091934199183e-02,8.094200277328499060e-02,9.406999731063801773e-02,1.569769897460940311e-01,8.108200216293300067e-02,1.259869971275330292e-01,9.160999441146898403e-02,1.341980018615719916e-01,1.537470021247859808e-01,1.218300023078919964e-01,1.690520086288450075e-01,1.299860038757320035e-01,1.244900026321410086e-01,6.853499794006301382e-02,1.027200021743770036e-01,8.472999715805100418e-02,1.164420046806339953e-01,1.754050054550170268e-01,1.035380043983459980e-01,7.917600059509298516e-02,8.636800432205200828e-02,9.210600042343099203e-02,7.434200429916400232e-02,7.441800022125200087e-02,6.657300376892101579e-02,7.611099863052399328e-02,1.396840014457699786e-01,1.567740001678469830e-01,7.908100271225000644e-02,7.887699985504199873e-02,7.257800483703599759e-02,7.330700540542600674e-02,1.047410049438479845e-01,1.769739904403689890e-01,1.432420053482060252e-01,1.045679965019230134e-01,1.081090011596679973e-01,1.219409980773929897e-01,8.521700286865201146e-02,8.341299676895098936e-02,7.079999828338601198e-02,8.139399671554602145e-02,7.670200252532999308e-02,6.439199829101600880e-02,1.178319969177250154e-01,6.568700456619300243e-02,9.067700290679901742e-02,9.660200262069700006e-02,6.817800188064600253e-02,1.124400057792660085e-01,1.212870039939879935e-01,1.517190017700200122e-01,1.091759958267209812e-01,1.395620026588439977e-01,1.593080081939700077e-01,1.676480093002319927e-01,1.219919958114620145e-01,1.307950057983400249e-01,9.532800102233900119e-02,1.306950011253359967e-01,1.145610013008119960e-01
6.772799873352099154e-02,1.462889947891239939e-01,1.561029949188230126e-01,8.320000553131100263e-02,6.978299999237100315e-02,7.087300205230699646e-02,8.622399950027499760e-02,7.288300180435200448e-02,6.387700223922700149e-02,1.005090036392209812e-01,8.021200084686298803e-02,8.369299554824800869e-02,1.205989995002749865e-01,1.376719989776610253e-01,1.723690071105959953e-01,1.799269952774050219e-01,8.933099889755301282e-02,1.015729942321780127e-01,9.766400241851801167e-02,1.132030048370360059e-01,8.112399959564199625e-02,8.985300445556600180e-02,9.692999505996700849e-02,8.719499492645298167e-02,7.805999898910499779e-02,8.081299448013300191e-02,7.544299745559698844e-02,8.799399518966698197e-02,1.265309967994689977e-01,1.054039993286129823e-01,8.098999643325797970e-02,6.273600244522099800e-02,7.991099739074701558e-02,7.507299566268900437e-02,7.744299554824800313e-02,1.091159977912899842e-01,8.161700153350799625e-02,7.439699554443399143e-02,7.011000299453699902e-02,1.134580054283140099e-01,1.003039994239810079e-01,8.893700027465799296e-02,7.991999769210798854e-02,8.589400434494000314e-02,8.016300582885700632e-02,7.253599548339799419e-02,8.508199834823600149e-02,9.577700281143199101e-02,7.756699705123899780e-02,7.880700016021699450e-02,7.841899776458700899e-02,9.653100156784098773e-02,1.157310047149659876e-01,1.537720003128050239e-01,1.385559954643250102e-01,9.363099718093902124e-02,8.579899454116800273e-02,9.069199943542501086e-02,8.278400087356600767e-02,7.189900064468399132e-02,1.427730002403260201e-01,1.358500041961669957e-01,7.364600086212200192e-02,7.620300436019900037e-02,8.485999488830599236e-02,1.176350035667420163e-01,1.693000116348269968e-01,9.727100515365601219e-02,2.309710063934330426e-01,1.422850050926209864e-01,9.855900192260701187e-02,7.331999921798700026e-02,7.793399477005000242e-02,7.739899539947500684e-02,1.220819988250729932e-01,1.452760019302369865e-01,1.008119978904720021e-01,7.353799724578899411e-02,8.135600471496599873e-02,7.941600465774499573e-02,8.085099840164199081e-02,8.098999643325797970e-02,5.577799463272099800e-02,1.172779955863949980e-01,8.764900350570702103e-02,7.858800077438399256e-02,7.789199733734099296e-02,5.434099817276001609e-02,7.691599512100200098e-02,7.622499847412100848e-02,2.173339881896970138e-01,1.259599962234499992e-01,1.583960094451900003e-01,9.483399772644000858e-02,1.513680019378660369e-01,1.863019981384280155e-01,9.814499998092700295e-02,6.986799621582000241e-02,8.344500446319601250e-02,7.972100162506100263e-02,9.041200065612799153e-02,9.032299900054900632e-02,6.757200145721399542e-02,9.622999811172501528e-02,7.123400354385400757e-02,9.615899705886800375e-02,7.486399793624899657e-02,8.264700555801400561e-02,1.750530042648320017e-01,1.926650085449220229e-01,1.018960037231449872e-01,1.049289979934689837e-01,1.744299926757809649e-01,1.826030054092410149e-01,1.010720052719119993e-01,1.391580023765560115e-01,1.002779998779299991e-01,1.378680028915409972e-01,8.406999492645299277e-02
6.555899763107299327e-02,1.085490026473999864e-01,7.054900312423699471e-02,4.518400216102599898e-02,6.415299558639499244e-02,8.503100061416600519e-02,8.400600337982198906e-02,8.367400550842300777e-02,9.792800331115701640e-02,8.951800251007101250e-02,1.212559976577759907e-01,7.291700029373200664e-02,6.637599849700900889e-02,6.061599636077900921e-02,9.048300170898400385e-02,1.425789990425110343e-01,9.506899499893199657e-02,8.693199539184599811e-02,7.893300437927198987e-02,1.247039952278140157e-01,8.604499483108500602e-02,8.428099536895801436e-02,1.323519983291630009e-01,1.261619963645940201e-01,7.359999799728400571e-02,7.709099435806300582e-02,7.506399536132798977e-02,7.459700489044200633e-02,1.350469985008240226e-01,9.530699634551999255e-02,6.829899930953998999e-02,6.908799791336099616e-02,7.375300312042200324e-02,7.185700321197500962e-02,1.301170029640200121e-01,2.692139902114870087e-01,2.759480037689209797e-01,1.937759914398189953e-01,6.860299491882300427e-02,1.082880058288569897e-01,8.485700273513800684e-02,7.812300109863298814e-02,8.559600496292101013e-02,9.168700361251801156e-02,7.011299514770498453e-02,1.102420010566710212e-01,9.731500530242899460e-02,9.700500154495199367e-02,8.180799865722700182e-02,8.288200283050499440e-02,8.420299673080398895e-02,9.354700231552100231e-02,1.383000054359440067e-01,9.152700090408301403e-02,1.191610016822820112e-01,1.208190002441410088e-01,9.920599842071499419e-02,7.931399726867700839e-02,1.028890051841740011e-01,8.370399856567399544e-02,1.777940073013309918e-01,1.642910041809079735e-01,7.590599441528300684e-02,7.298100376129199041e-02,8.164999866485599112e-02,1.077070035934449971e-01,9.368800306320200499e-02,1.177470006942750030e-01,1.717050113677979772e-01,1.438139953613279953e-01,1.142439999580380089e-01,7.298399591445900447e-02,9.635500097274800335e-02,8.170400047302199542e-02,1.014060058593749952e-01,7.988800191879298629e-02,8.598900222778300961e-02,6.990000391006501168e-02,7.800799989700299419e-02,8.961700582504299184e-02,8.052800083160401023e-02,8.633799934387199893e-02,7.177600049972500396e-02,7.933500194549601703e-02,9.993600034713699676e-02,1.110389986038210069e-01,7.449200534820600572e-02,7.644299650192300233e-02,6.560500049591100336e-02,1.032400050163270050e-01,1.354139962196350133e-01,9.063899898529099997e-02,1.937749900817870019e-01,8.330300235748298865e-02,1.607409992218019612e-01,1.200189986228939881e-01,9.550999784469600684e-02,7.131499433517500541e-02,7.310899877548200643e-02,8.693100595474199943e-02,7.805899763107300438e-02,7.023200178146400685e-02,7.713899993896500273e-02,7.914400482177701146e-02,6.960800075530999831e-02,9.929700279235799398e-02,7.262499713897700715e-02,9.296800279617299656e-02,1.554369964599610077e-01,1.620990076065059737e-01,9.022399568557699923e-02,1.267169990539550040e-01,1.634949960708619865e-01,1.222440042495730045e-01,1.529019989967350113e-01,1.439520039558410125e-01,9.749000453948998557e-02,1.367039957046509713e-01,9.801099681854198720e-02
7.486800336837799719e-02,7.712699556350699481e-02,7.613499546051001599e-02,7.991899633407599512e-02,7.908800029754602112e-02,7.883199834823599594e-02,7.011599922180200561e-02,6.781700038909900530e-02,6.692799711227399861e-02,7.311000013351399984e-02,9.148400211334199728e-02,1.218990006446839941e-01,1.542259969711300416e-01,9.540100479125999955e-02,1.424850025177000212e-01,1.183700003623959912e-01,1.677350082397460196e-01,8.258599424362199348e-02,7.666199588775599039e-02,1.005280055999760030e-01,8.375599765777598515e-02,7.722599887847900191e-02,7.897600317001300663e-02,8.572600269317599830e-02,8.600600147247298988e-02,7.566899442672700427e-02,6.036899471282998475e-02,7.694900417327900366e-02,8.766299867629999409e-02,8.417300367355300128e-02,5.961000108718901569e-02,6.290300273895299554e-02,7.032499694824201342e-02,8.119500064849900778e-02,9.882400417327900921e-02,2.023510017395019900e-01,1.774659910202029955e-01,2.187140026092530554e-01,7.083199405670199955e-02,1.036029973030090229e-01,9.614299917221101610e-02,1.134820022583010041e-01,7.999300146102901465e-02,6.690400028228800366e-02,1.278819956779480016e-01,1.133909978866580043e-01,1.862269916534419756e-01,1.298720040321350022e-01,9.095900440216099503e-02,8.330300235748298865e-02,7.830700063705399450e-02,1.075730004310609805e-01,1.045249977111819967e-01,1.674140014648440311e-01,1.017749943733220058e-01,8.447699928283701476e-02,9.184600496292101568e-02,7.751900339126600870e-02,7.538500213623000601e-02,8.913400554657001373e-02,1.973749914169310449e-01,9.904799842834498269e-02,7.281599426269499964e-02,7.856599473953200519e-02,1.276209988594060318e-01,1.410110034942629875e-01,9.434700393676799524e-02,1.338550009727479950e-01,1.246830024719240010e-01,1.093009986877439971e-01,1.353740015029910038e-01,8.175299549102800489e-02,9.045999431610100838e-02,9.094800138473500828e-02,8.058799886703500726e-02,6.873000049591100613e-02,1.056919970512389811e-01,1.044799962043759939e-01,1.008140006065369881e-01,8.413299703597999779e-02,7.532999897003200829e-02,6.606899881362900129e-02,7.781000518798798782e-02,9.013300323486299337e-02,9.678800487518300633e-02,8.134400033950799080e-02,6.707799816131600201e-02,8.421500110626199687e-02,6.845000171661398680e-02,1.144140043258669998e-01,1.158080019950869927e-01,9.955100202560400457e-02,1.961829938888549618e-01,7.516899490356400426e-02,1.064739980697630012e-01,1.896610059738160214e-01,1.991780080795290120e-01,9.109599971771199789e-02,7.405100250244101012e-02,8.443400049209599800e-02,6.731399679183999729e-02,1.339239993095400205e-01,8.718899869918801671e-02,9.344200277328500170e-02,9.593999767303500181e-02,7.391200447082499347e-02,7.336199665069599585e-02,9.464600467681900942e-02,1.188579955101009972e-01,1.819119968414310007e-01,8.286600494384797899e-02,1.390659966468810183e-01,1.492419996261600268e-01,1.494310059547420133e-01,1.459579982757570060e-01,9.379200124740601219e-02,8.449299716949500161e-02,8.020199918746899470e-02,8.136400365829500603e-02
7.868800544738800695e-02,7.216400289535500334e-02,7.737000370025599871e-02,6.430600070953400305e-02,7.684899950027498927e-02,2.625649952888489680e-02,7.085999631881700900e-02,8.609600448608399625e-02,9.231199407577499183e-02,2.455870294570919321e-02,6.797500038146998824e-02,8.061299705505399482e-02,9.130800151825001210e-02,1.098120012283329977e-01,1.072060027122499898e-01,1.266719975471499726e-01,1.125409998893740077e-01,8.788500213623000323e-02,1.114200034141540202e-01,7.966299438476599770e-02,7.692200326919600151e-02,1.167179980278020140e-01,7.188699626922601116e-02,7.301899576187100005e-02,8.201699638366698186e-02,9.518100404739400500e-02,6.635200166702300006e-02,5.860799932479900110e-02,9.184899711608900119e-02,6.655199909210200715e-02,6.408100509643599452e-02,5.805800342559798433e-02,6.716299438476600048e-02,7.397499465942400376e-02,1.454999961853030155e-01,1.744509973526000013e-01,1.751899995803830046e-01,1.638269939422610233e-01,7.413599872589100859e-02,1.047449984550480190e-01,1.196049966812130078e-01,8.814900302887000716e-02,7.695399904251100376e-02,7.046499633789100880e-02,1.245899953842159874e-01,1.228380002975460045e-01,1.368279972076419937e-01,1.632730045318599998e-01,1.013469972610469977e-01,8.141600275039699575e-02,6.847099447250400150e-02,1.034989991188049879e-01,9.358100080490099060e-02,1.259580054283140349e-01,1.258160033226010110e-01,1.164079942703249854e-01,6.562400245666499821e-02,6.351700210571299687e-02,7.217699670791599686e-02,1.725100078582760266e-01,1.734940090179439842e-01,8.121400260925300263e-02,7.964200162887601075e-02,1.411219992637630094e-01,1.235989966392519873e-01,1.034339942932129969e-01,1.199940004348759998e-01,1.656039991378780440e-01,1.134370007514950013e-01,9.438100242614698432e-02,1.160129942893979998e-01,7.841799640655500170e-02,8.595400238037100016e-02,1.090539970397950004e-01,7.293700361251799491e-02,1.305359997749330203e-01,1.393889942169189711e-01,9.023800277710002093e-02,1.097649970054630081e-01,7.248599910736099050e-02,6.134399557113601187e-02,7.482400321960500089e-02,9.279599571228001886e-02,1.504239954948429769e-01,1.097180047035219846e-01,7.773100519180299595e-02,5.175620102882390328e-02,8.435000562667800683e-02,6.610500001907300416e-02,9.210299634933501178e-02,1.087719955444339942e-01,1.486640014648439867e-01,1.976759948730469896e-01,6.874399566650399307e-02,1.315110006332400050e-01,1.423589982986450120e-01,1.415720024108890196e-01,1.209540047645569910e-01,1.817149915695189799e-01,1.014889993667600215e-01,7.083399677276600026e-02,1.404230036735529819e-01,1.892869987487789674e-01,1.024310030937189836e-01,7.126700067520098936e-02,8.321299934387201003e-02,7.687499904632599801e-02,1.052940049171450093e-01,8.987000370025598206e-02,2.049380102157590255e-01,1.112360038757320008e-01,7.168100261688199748e-02,9.752999925613402288e-02,1.124990024566649843e-01,1.339450039863590014e-01,1.057930030822750028e-01,1.566779890060420177e-01,7.340599679946899214e-02,1.359689989089969964e-01
8.908800268173198977e-02,7.642900133132898843e-02,7.463100337982199461e-02,9.053800487518300077e-02,7.319800043106099163e-02,7.439699554443399143e-02,9.508300209045399132e-02,7.447499418258700377e-02,7.730800294876101486e-02,8.192799472808799666e-02,7.739999675750698638e-02,7.916399621963500499e-02,8.185600423812898485e-02,7.161200428008999974e-02,7.752099418640098771e-02,7.210499429702800500e-02,1.233850040435789802e-01,8.451899671554601035e-02,1.393250026702880229e-01,8.240000391006500891e-02,7.559899473190301311e-02,8.439900064468398855e-02,7.589799547195398566e-02,7.095899963378900221e-02,9.831400299072300120e-02,1.667629995346069927e-01,1.392920055389400003e-01,7.201799535751300663e-02,5.626199626922601116e-02,6.750400447845499030e-02,6.739199542999300963e-02,5.560800218582200027e-02,6.508800172805799533e-02,8.432100200653101785e-02,7.831999444961498802e-02,9.376099491119400942e-02,9.732000017166099470e-02,7.623099470138601508e-02,8.128699445724500705e-02,8.429099702835100849e-02,8.778900289535500334e-02,8.292400026321398998e-02,7.687000417709399791e-02,7.476200246810900396e-02,1.520039954185490316e-01,9.981500291824300930e-02,1.092829980850219956e-01,1.022139945030210023e-01,6.861399793624900489e-02,6.298499488830600068e-02,6.028600120544400087e-02,9.211299800872800592e-02,1.458400049209589988e-01,8.963400506973299986e-02,1.177840032577509993e-01,7.775600337982199739e-02,6.650799894332899698e-02,7.927999877929702011e-02,7.101400279998799914e-02,1.062729992866520007e-01,1.092729964256290015e-01,8.466999912262000716e-02,7.636000299453700457e-02,1.936719932556150159e-01,1.908410110473630072e-01,8.287899875640901415e-02,9.489399576187100560e-02,1.424969949722290075e-01,1.571179904937740068e-01,9.656900548934900519e-02,1.267349996566770054e-01,7.140900278091399933e-02,7.859599971771200067e-02,8.766800546646101588e-02,9.057699823379501691e-02,1.319700040817259890e-01,1.099399962425229998e-01,1.087700047492980021e-01,7.752499961853000221e-02,7.687100553512600520e-02,3.221289896965030819e-02,8.150600576400800212e-02,1.077690043449400087e-01,1.687819995880129875e-01,1.096280016899110060e-01,7.976999664306601290e-02,5.403399848937999461e-02,7.559899473190301311e-02,6.608800077438399534e-02,7.856699609756501168e-02,1.347880043983459841e-01,1.409339942932130163e-01,1.435900011062620218e-01,6.523700141906700611e-02,9.661300563812301456e-02,1.184080042839050079e-01,1.446970024108890085e-01,1.146220006942749864e-01,1.358060040473940133e-01,1.143299975395199869e-01,7.423899555206300849e-02,1.018260040283199969e-01,1.267810025215150294e-01,9.380599641799901300e-02,7.827099943160999163e-02,1.303350009918209929e-01,1.410169997215270365e-01,7.494899415969799583e-02,1.451039948463440088e-01,2.018849887847899982e-01,1.118539967536929941e-01,6.911600017547600561e-02,7.942699575424201630e-02,8.031200551986701630e-02,9.449500226974501260e-02,1.545589962005620155e-01,1.583940067291260134e-01,9.271699571609499924e-02,1.988199987411499725e-01
6.382099771499601115e-02,7.748799705505400592e-02,9.282000446319600695e-02,8.182299518585199605e-02,4.774380111694340179e-02,7.956899785995498464e-02,6.973599576950099965e-02,6.378599786758400170e-02,6.975700044632000829e-02,7.837100410461399214e-02,7.041800403594999924e-02,6.922099971771200622e-02,1.342579998970029886e-01,9.300500535964999205e-02,8.505399608612100593e-02,7.895199441909798999e-02,1.065720000267029871e-01,7.299100542068499842e-02,6.247300291061398669e-02,7.095599555969200889e-02,6.540099763870199645e-02,7.244899654388400889e-02,6.450900220871000346e-02,7.862699413299600870e-02,8.120199823379502246e-02,9.766199970245399709e-02,7.895599985122700448e-02,6.448200130462600210e-02,5.347680234909059360e-02,9.915999555587799719e-02,7.980900192260699522e-02,5.458200359344500541e-02,7.702299737930300150e-02,1.158229985237120147e-01,1.275679984092710217e-01,1.296989955902100311e-01,1.604470052719120243e-01,1.564250030517579937e-01,8.717799568176300140e-02,1.310149946212770256e-01,8.772900485992400632e-02,8.385399961471599883e-02,8.211299562454198175e-02,6.940100574493399122e-02,1.304170050621030197e-01,8.823700332641599975e-02,1.295949974060059962e-01,7.061499738693199912e-02,6.483899736404398484e-02,7.304599666595498753e-02,7.375400447845499585e-02,1.303649940490719805e-01,1.468529977798460062e-01,1.082590022087100007e-01,8.349600219726600880e-02,7.451000595092800716e-02,6.256699943542499975e-02,6.598899745941200212e-02,1.137689986228940103e-01,7.549100303649899923e-02,8.322699451446501084e-02,8.895199680328401415e-02,8.775500440597501506e-02,9.649399900436399224e-02,7.811999702453599481e-02,7.025800132751500171e-02,8.082199478149400262e-02,1.218169965744020228e-01,8.738400125503499594e-02,9.599800491332997898e-02,9.459000015258799132e-02,7.068200492858900397e-02,1.027210035324099963e-01,7.482500457763700819e-02,1.292210021018980193e-01,2.306849994659420089e-01,1.264509954452510132e-01,9.565699481964100304e-02,7.842699670791598854e-02,6.624900484085101404e-02,6.258600139617899460e-02,8.666600370407100129e-02,8.378399991989100848e-02,1.400560059547419911e-01,1.042709984779359861e-01,7.396099948883101682e-02,6.275400304794299944e-02,7.292900466918901536e-02,7.718500280380299894e-02,6.923000001907299306e-02,1.723239936828609986e-01,1.181260027885440017e-01,1.359829940795900249e-01,6.831499719619800459e-02,1.103009977340699971e-01,1.043999948501590086e-01,1.039279975891109903e-01,1.044680037498469799e-01,1.323120036125179921e-01,7.061900281906098586e-02,7.551399850845298689e-02,1.144320049285890012e-01,1.034480013847349916e-01,7.118399524688701074e-02,1.002779998779299991e-01,1.004030027389529872e-01,1.396340050697330026e-01,7.025399589538601497e-02,8.127099657058699245e-02,1.211319961547849960e-01,6.781399631500199809e-02,8.367499494552597950e-02,7.418699645996100489e-02,1.037069954872130023e-01,1.378619947433469828e-01,1.268320002555849979e-01,8.759099626541098915e-02,1.003099956512450014e-01,1.371859946250920115e-01
5.988599443435700664e-02,7.000199937820399121e-02,7.390699768066399944e-02,7.095400476455700212e-02,5.512199783325200109e-02,9.301100158691398556e-02,7.401800537109400058e-02,7.443000459671000879e-02,6.210600519180299595e-02,7.755099916458101095e-02,8.711599493026699059e-02,7.087400341033900375e-02,7.753999614715600952e-02,9.153399848938000016e-02,9.085400485992399522e-02,9.544500494003300972e-02,7.890799427032499369e-02,7.592699909210200160e-02,5.767300510406500602e-02,6.886899852752700890e-02,6.177900218963601475e-02,6.413799905776999821e-02,7.844299459457400314e-02,7.425699615478499604e-02,8.352799797058101106e-02,7.004499816894500797e-02,6.847700262069700283e-02,5.379649782180789819e-02,5.915600442886399801e-02,4.493869924545290662e-02,5.975300455093399132e-02,5.426899576187101115e-02,6.656200075149500128e-02,1.248580017089839928e-01,1.396739997863770122e-01,1.540550031661990227e-01,1.101439990997310076e-01,9.770700120925900067e-02,7.184299612045298711e-02,9.366499567031900952e-02,7.467999839782699101e-02,6.262200260162399668e-02,7.549699926376300663e-02,1.153790035247800189e-01,1.096570053100589942e-01,1.377689995765690179e-01,1.551889934539790183e-01,1.423890032768250213e-01,6.728400373458899575e-02,6.531199598312399657e-02,6.797299766540500221e-02,1.168080010414119935e-01,1.670589962005620266e-01,1.786939897537230260e-01,1.369020023345949855e-01,7.182300472259499358e-02,6.098900222778300129e-02,6.060599470138601508e-02,9.710499429702799945e-02,9.427700424194300488e-02,7.657800102233899842e-02,6.290500545501699625e-02,1.118150033950810057e-01,1.363600053787230038e-01,1.821539916992190311e-01,7.133200550079299429e-02,1.133530058860779816e-01,1.737410106658939801e-01,1.789700069427490048e-01,1.326550045013429879e-01,8.530799531936601732e-02,9.186100149154700911e-02,7.467899703979501147e-02,7.222899580001800046e-02,1.611150064468379606e-01,1.545510091781620021e-01,1.735339918136599713e-01,1.028389968872070043e-01,8.039299631118800027e-02,6.804600143432600057e-02,6.385800027847299276e-02,8.021500492095899604e-02,7.914799833297701814e-02,1.064109959602359962e-01,1.778460063934330093e-01,7.353699588775598761e-02,6.292900228500399040e-02,5.795300388336199759e-02,7.563499593734698823e-02,8.801199579238901116e-02,6.853900337219200056e-02,1.079280056953429850e-01,7.757900142669700572e-02,6.325999879837000683e-02,8.831199789047199100e-02,1.042030014991760095e-01,1.900769987106319947e-01,1.820869960784909924e-01,1.137949981689449913e-01,8.191099548339798864e-02,7.952599906921399564e-02,1.311960020065310317e-01,8.190800333023100233e-02,6.830200338363601187e-02,8.273500585555999820e-02,8.511599683761598978e-02,1.059140005111689903e-01,7.655400419235200427e-02,7.655100011825599626e-02,7.714699888229399616e-02,7.910999441146900069e-02,7.055000448226900200e-02,7.960000419616698741e-02,1.049580016136169996e-01,8.407800579070999480e-02,7.675799512863198948e-02,7.708299541473399852e-02,7.684899950027498927e-02,6.297699594497700726e-02
5.654199504852298885e-02,6.418400192260699522e-02,6.802000188827499183e-02,6.543699884414699852e-02,5.638000154495199923e-02,8.085099840164199081e-02,6.328299427032499369e-02,5.258409762382509900e-02,5.332370185852049194e-02,6.121000432968100313e-02,7.551700258255000797e-02,8.033500099182099008e-02,7.902199411392200890e-02,9.474699878692600941e-02,1.014279999732970033e-01,7.262100362777701434e-02,6.312400484085101127e-02,5.900500202179000120e-02,6.449900054931601012e-02,6.161699676513700263e-02,5.779600524902299419e-02,6.212200307846101055e-02,1.123230018615719999e-01,6.262400531768801126e-02,6.496099615096999347e-02,6.476400279998799359e-02,6.707499408721899481e-02,5.011709713935849630e-02,8.421099567413299625e-02,7.100299978256198463e-02,5.476899528503399728e-02,5.042519950866700129e-02,9.364799642562900150e-02,8.389300489425698115e-02,9.169999742507899121e-02,1.216309943199159888e-01,9.820399665832500735e-02,7.310599470138601230e-02,6.342200422287000428e-02,7.022099876403799235e-02,6.503899478912400500e-02,6.494599962234499924e-02,6.896499776840200879e-02,1.418579974174499769e-01,9.972499990463300212e-02,1.084919967651370026e-01,1.686689891815190134e-01,1.100109972953799836e-01,6.375400209426899945e-02,6.050299787521400130e-02,8.131200456619301631e-02,9.355299854278599503e-02,1.307979979515079827e-01,1.809500017166140173e-01,1.427369990348820172e-01,7.304200315475499472e-02,7.115300083160400191e-02,7.969099664688099327e-02,1.349910058975219984e-01,1.541929998397829626e-01,6.098299407958999996e-02,7.445300006866499565e-02,1.210699954032899844e-01,1.430519976615909905e-01,1.226120033264159886e-01,6.969299697876001065e-02,8.130799913406401569e-02,1.136609950065610025e-01,1.061649956703189929e-01,1.041940011978150088e-01,7.869500303268399388e-02,8.339200401306200161e-02,6.455300235748299975e-02,7.639199876785300602e-02,1.216309943199159888e-01,1.492999949455259823e-01,1.416019954681400073e-01,1.005100049972530024e-01,7.847799444198599872e-02,4.976860070228579513e-02,6.173999691009499080e-02,7.767899417877199841e-02,7.195300245285000951e-02,1.182070055007929804e-01,8.944199466705300694e-02,8.368800067901600859e-02,6.591500425338700508e-02,5.938899898529099997e-02,7.622800254821800181e-02,8.181200408935500323e-02,1.197660007476809979e-01,1.184909977912900064e-01,7.136199855804399583e-02,8.154700183868400509e-02,1.441630043983460063e-01,1.918999948501590169e-01,1.673440017700200122e-01,1.671639957427979994e-01,9.640700006485002083e-02,8.145200395584099862e-02,7.634799861907999585e-02,8.371099615096998237e-02,7.321299695968598586e-02,6.594800138473499995e-02,6.862999582290700562e-02,1.228470005989070052e-01,8.064899826049799769e-02,7.207999610900898968e-02,7.215700531005898866e-02,6.263200426101700469e-02,8.566500329971300787e-02,7.132900142669700017e-02,7.825800561904901198e-02,8.805200242996201465e-02,9.553599739074701558e-02,7.865200424194300488e-02,1.088769950866700226e-01,7.079300069808999729e-02,7.145599508285500889e-02
5.581800127029398761e-02,6.712500238418599163e-02,7.914400482177701146e-02,9.337499523162799686e-02,7.513599777221699472e-02,6.037199878692600663e-02,5.608799839019799893e-02,4.891639733314509519e-02,4.679829859733580788e-02,7.128700399398799070e-02,8.215599441528299851e-02,7.364600086212200192e-02,6.661600255966200479e-02,7.110000038146999102e-02,8.082600021362300324e-02,7.320800209045398577e-02,6.354400300979601290e-02,5.863700294494600396e-02,5.665899896621699738e-02,6.166199827194200622e-02,5.190869951248169856e-02,5.584500217437700365e-02,6.056000375747701281e-02,6.341200256347701014e-02,6.067200088501001343e-02,5.465599679946898937e-02,6.431600236892699718e-02,5.040380144119260830e-02,8.538600587844800971e-02,7.575899744033799676e-02,5.440600299835200715e-02,5.414499425888098794e-02,6.620799684524500406e-02,8.399900579452500293e-02,7.829499626159698578e-02,7.679399633407599235e-02,7.182699823379501414e-02,6.158600234985400768e-02,5.739100360870398598e-02,7.364800357818598875e-02,7.915100240707399759e-02,5.880200052261398691e-02,7.177600049972500396e-02,7.729000234603899955e-02,8.590200328826901044e-02,1.005370059013370038e-01,1.345320024490360145e-01,1.112460055351259941e-01,5.753900194168100335e-02,5.531800174713098761e-02,9.017999553680398905e-02,1.462209978103640173e-01,1.492800035476680165e-01,1.549229898452760268e-01,7.602199697494500807e-02,5.890299463272098690e-02,6.448699617385900140e-02,1.062930026054380167e-01,8.809199714660599645e-02,1.063560047149659932e-01,5.630000019073500006e-02,7.962999725341800283e-02,8.305600070953399194e-02,1.114000000953670050e-01,8.923499965667701372e-02,9.469199562072801168e-02,1.051229991912839973e-01,1.709140100479130120e-01,1.071659960746770140e-01,6.424899482727099154e-02,8.325499677658100561e-02,6.370000028610200982e-02,7.237500333785999718e-02,7.594199562072800891e-02,8.961600446701099842e-02,1.086900033950810168e-01,1.482860007286069814e-01,6.934800529480000808e-02,6.247100019454999986e-02,3.764269733428959874e-02,6.332199954986598989e-02,8.102499628067001691e-02,8.225599908828699902e-02,1.178219952583310220e-01,1.491810002326969808e-01,1.426430025100710042e-01,5.767699861526499883e-02,5.937600517273000644e-02,5.783100509643598897e-02,7.409999752044700572e-02,1.615710058212279643e-01,1.636780061721799795e-01,4.896340155601500155e-02,1.187680044174189847e-01,1.184780039787289990e-01,1.392349996566770165e-01,1.270000019073490027e-01,1.114630022048950092e-01,7.313000345230100119e-02,6.613500499725299964e-02,6.399000072479199552e-02,8.055800580978399184e-02,5.625700139999401106e-02,6.384599590301499872e-02,1.314189949035640126e-01,1.642760076522830071e-01,1.255749979019170071e-01,6.740999603271499718e-02,1.085779943466190084e-01,6.043800497055100418e-02,6.980100059509299071e-02,1.188830056190490064e-01,1.521840014457699897e-01,1.151389994621280083e-01,1.429000058174130228e-01,9.225700283050498884e-02,9.329300308227499172e-02,7.543900394439699564e-02,7.782400035858201559e-02
5.715899848937999739e-02,6.354500436782799244e-02,6.447600507736199471e-02,6.180199766159100161e-02,6.465900325775099378e-02,6.747800493240400932e-02,5.443799877166699552e-02,5.087020182609559849e-02,4.747980022430420277e-02,5.258229756355280171e-02,5.631499671935999429e-02,5.602399492263800129e-02,6.571900033950799080e-02,5.594799900054900355e-02,7.742699766159100161e-02,6.239899778366099492e-02,6.087700510025000067e-02,5.494399452209498824e-02,6.126499557495099224e-02,5.379259967803959319e-02,4.984310054779050869e-02,5.378250265121460594e-02,5.801300191879299462e-02,5.655999565124500417e-02,5.483500146865800950e-02,5.110829854011540718e-02,4.656569743156430130e-02,6.249399566650400140e-02,6.323800468444799872e-02,6.782700204849201331e-02,5.519999647140501342e-02,5.052609825134279919e-02,6.383500480651900510e-02,6.373500013351400539e-02,6.572800064086900540e-02,6.253799581527701157e-02,6.145300054550199842e-02,6.183400535583501167e-02,8.283000373840300468e-02,1.388320007324220229e-01,8.468100214004502246e-02,6.123799467086800397e-02,7.656499528884901096e-02,8.004199647903399717e-02,7.051599407196000591e-02,8.946600341796899503e-02,1.361269989013670356e-01,7.730700159072900757e-02,5.654299640655499615e-02,5.705600166320801137e-02,7.913200044632000274e-02,9.430799865722701292e-02,9.418299579620399709e-02,7.623399877548199532e-02,5.870399856567400099e-02,6.343299531936601177e-02,7.791099929809598701e-02,1.123289980888369927e-01,9.251599693298299953e-02,7.595600271225000366e-02,6.888399505615201701e-02,7.335800313949600304e-02,7.313900375366200191e-02,8.038100385665901404e-02,9.760899925231901475e-02,7.053399467468299266e-02,1.157290019989010016e-01,1.243709959983829855e-01,1.280710020065309873e-01,6.113100433349601126e-02,6.454300069809000562e-02,6.025200271606401259e-02,6.629900121688800385e-02,8.169500017166099470e-02,9.756299638748198999e-02,1.208910026550290145e-01,1.105520048141479944e-01,7.228800439834599800e-02,6.234499597549400529e-02,3.774509811401370596e-02,7.113600158691399389e-02,9.802099847793598053e-02,1.384750046730039985e-01,9.190600299835201270e-02,1.558959999084469916e-01,1.207850017547610205e-01,5.798199558258100572e-02,5.627700471878101240e-02,5.610499763488800695e-02,7.287700557708699789e-02,1.221310057640079966e-01,1.017519989013670051e-01,5.909699583053600047e-02,1.100850024223330031e-01,1.050609984397889857e-01,1.051109948158259894e-01,1.162329950332639944e-01,7.936100149154699801e-02,8.229400300979601568e-02,6.304500484466599164e-02,5.652300500869800182e-02,6.108299875259400047e-02,5.894699478149401095e-02,7.875999593734699100e-02,7.352999830246000068e-02,8.721199417114298968e-02,9.765899562835698988e-02,8.445699596404999954e-02,1.089340009689330063e-01,4.979200148582459129e-02,6.630399608612100315e-02,9.157799863815301034e-02,7.307900571823100488e-02,1.068040051460270173e-01,9.599500083923299953e-02,6.543100261688199193e-02,7.879799985885600766e-02,7.579499864578199964e-02,8.935799980163601497e-02
5.649600410461398659e-02,6.266500139236498568e-02,5.770999574661299369e-02,6.665200376510600766e-02,5.523200416564899573e-02,6.110200071334799532e-02,4.822510266304021187e-02,4.536139750480659705e-02,4.532019877433780819e-02,4.394870185852049749e-02,5.226719760894779632e-02,5.071220183372500412e-02,5.342479729652400977e-02,5.075089716911319881e-02,5.746399545669600428e-02,5.518099451065099081e-02,5.649300003051800634e-02,5.318140172958370215e-02,5.280220293998720560e-02,5.406999969482399748e-02,4.834239864349360039e-02,4.859769725799560625e-02,5.252939844131469804e-02,5.145190143585200160e-02,4.821060085296630104e-02,4.335940265655520431e-02,4.505659723281860152e-02,6.957600498199500993e-02,4.656590008735660147e-02,5.136599922180180855e-02,5.619899415969799306e-02,4.931000256538389803e-02,5.788599634170499275e-02,6.351100587844800416e-02,6.090799951553300950e-02,6.189200067520099491e-02,5.309589886665340430e-02,8.744399929046599296e-02,1.294940032958979970e-01,9.276299858093299544e-02,7.747799539565999871e-02,5.536499404907199717e-02,7.512100124359100128e-02,7.493499898910500889e-02,8.144200229644800448e-02,1.023219981193540101e-01,1.502569952011110210e-01,7.364700222015400921e-02,5.363409900665279395e-02,5.545900249481199029e-02,7.351800584793100057e-02,7.869700574874900767e-02,8.883999967575099965e-02,6.641799592971799060e-02,5.204769754409789562e-02,5.808600568771400685e-02,9.000000143051099799e-02,7.972499513626100931e-02,8.075600051879901209e-02,7.157199764251699625e-02,7.168200397491499010e-02,1.229100027084349817e-01,6.537599945068399421e-02,7.060799980163601219e-02,4.735520267486570400e-02,8.165300273895299832e-02,1.225230016708370034e-01,1.263590016365049862e-01,8.915399694442800727e-02,9.728700304031399904e-02,6.031999969482400303e-02,5.254140281677251167e-02,8.651199722289999727e-02,9.046500110626200242e-02,9.551999950408900097e-02,6.948500061035201014e-02,8.004600191116299779e-02,8.687999629974400839e-02,6.045999908447298454e-02,5.821799421310400180e-02,7.082100296020499286e-02,1.060920038223269884e-01,8.307299995422399996e-02,1.230240025520320107e-01,1.306389966011050063e-01,9.726100349426301805e-02,7.020800495147701270e-02,5.825800085067800449e-02,5.513300085067800171e-02,6.625399971008301414e-02,8.089800262451200819e-02,8.778700017929098876e-02,7.817600154876699903e-02,9.060700321197499851e-02,1.113619961738589875e-01,1.193069972991940147e-01,7.855600500106800499e-02,8.339900159835798854e-02,6.701100254058800498e-02,6.883800411224401394e-02,5.975300455093399132e-02,5.799600267410300047e-02,1.025980033874509950e-01,8.295900011062599944e-02,7.695500040054299717e-02,8.870900058746299111e-02,5.538399600982699122e-02,6.925800228118901558e-02,7.404799842834498824e-02,5.496299648284901085e-02,8.135300064086901928e-02,6.435499572753899944e-02,7.250800514221200643e-02,9.213999891281098031e-02,9.936399841308600489e-02,7.509500169753999255e-02,8.610899829864500366e-02,5.091470265388489680e-02,8.911799573898300519e-02
4.479350233077999954e-02,4.348400020599370308e-02,4.514570021629329966e-02,4.803550028800959715e-02,5.243670129775999944e-02,4.996520066261291027e-02,4.613860034942630917e-02,4.459839844703669676e-02,4.199030184745790317e-02,4.292250061035159103e-02,4.519300246238709684e-02,4.417429947853089567e-02,4.912820243835450129e-02,4.872280144691469583e-02,5.152519726753240770e-02,5.253129982948299970e-02,4.909909749031070303e-02,5.104909920692440872e-02,5.473299407958999441e-02,4.709210181236270221e-02,5.092819714546210907e-02,5.070090079307559838e-02,4.891580128669739680e-02,4.756150031089780017e-02,4.579999828338619794e-02,4.186039948463439464e-02,4.422619724273681163e-02,6.317400121688800108e-02,7.499200487136800652e-02,1.111599960327149944e-01,5.039120101928709627e-02,4.838880085945131138e-02,5.490199708938600653e-02,5.213159704208369938e-02,5.233790063858030639e-02,7.292700195312500078e-02,8.320800447464000993e-02,8.193099880218500386e-02,1.348670043945310315e-01,9.175299787521400130e-02,1.024380006790159975e-01,5.526800537109399780e-02,6.092000389099101743e-02,8.142700576782201105e-02,1.342829980850219762e-01,1.301829972267150026e-01,9.599399948120100612e-02,5.871400022506700900e-02,5.476400041580199718e-02,5.188290262222290672e-02,6.217199945449800036e-02,6.911000394821199821e-02,7.085999631881700900e-02,5.296230101585390482e-02,6.919900560378999810e-02,5.833199405670198845e-02,6.730100297927900377e-02,8.883599424362199903e-02,8.125299596786499101e-02,7.006800556182898876e-02,5.618600034713701341e-02,9.323399448394799338e-02,7.984400177002000387e-02,7.045900011062600221e-02,8.824199819564799985e-02,8.397900247573898691e-02,8.356800460815401455e-02,7.486600065231301115e-02,9.385500335693398866e-02,7.304900074005100941e-02,5.831900024414100880e-02,5.404600286483800253e-02,7.836000108718900459e-02,7.610700511932400047e-02,7.737399721145600540e-02,1.009619989395140055e-01,8.327500009536702164e-02,8.132700109481801054e-02,5.739900255203200796e-02,5.547700309753400560e-02,7.207999610900898968e-02,8.255399847030599203e-02,9.041500473022499873e-02,9.408899927139301178e-02,7.779399538040200623e-02,8.772199535369899770e-02,5.587699794769300510e-02,5.910300397872900180e-02,5.328140044212339999e-02,5.403999471664400200e-02,8.202400588989298968e-02,7.094699525833100817e-02,8.910600328445399121e-02,9.218199634552000366e-02,8.480699443817101002e-02,6.847700262069700283e-02,7.842799806594799583e-02,7.642300510406500880e-02,5.705000543594400397e-02,5.299989962577819624e-02,5.372749948501590045e-02,7.491699838638299358e-02,6.489799404144300232e-02,7.573999547958400191e-02,7.857799911498998535e-02,7.293299818038900817e-02,8.058799886703500726e-02,7.816100502014200480e-02,7.630099439621000623e-02,5.805499935150100488e-02,8.103000307083101095e-02,6.789499902725200375e-02,8.156799459457399204e-02,8.524699592590299912e-02,7.180799627304099153e-02,7.102899932861299337e-02,5.396389746665949949e-02,8.607499980926501537e-02,6.998900556564299769e-02
4.264079713821410100e-02,4.110470199584960460e-02,4.587059998512270365e-02,4.525869870185850186e-02,4.542159819602969995e-02,4.673830056190489413e-02,4.218110227584839778e-02,4.344609761238100998e-02,3.903370285034180043e-02,4.137789988517760753e-02,4.135179901123049728e-02,3.991489791870120318e-02,4.250089907646180387e-02,4.187840008735660424e-02,4.715360188484189752e-02,4.835290098190310470e-02,4.750320100784299893e-02,5.163829708099360039e-02,4.386449837684630593e-02,4.531429791450500288e-02,4.475909852981570236e-02,4.620730066299440220e-02,4.628730201721190096e-02,4.396940255165100730e-02,4.630809807777409859e-02,4.544150018692019732e-02,5.388059997558590497e-02,4.869839930534360095e-02,6.302800559997601137e-02,9.469999456405599203e-02,4.758440041542050247e-02,4.624190115928650258e-02,4.842059993743899615e-02,4.746579909324651070e-02,5.314039969444279976e-02,8.762300395965601230e-02,1.190910019874570208e-01,8.249899530410799431e-02,1.053560056686399932e-01,8.693900489807100673e-02,9.130200529098499163e-02,1.076870002746580096e-01,5.653499746322600272e-02,7.721399450302099399e-02,9.368600034713701896e-02,6.298799896240200868e-02,7.076700115203900243e-02,6.121199512481700911e-02,6.007000589370700694e-02,5.253910207748409278e-02,5.565799856185900396e-02,6.306399488449099255e-02,5.371749782562260100e-02,5.624100351333601033e-02,6.065999650955200551e-02,5.802699708938600931e-02,6.438899421691898772e-02,5.760000133514399379e-02,6.849199914932299627e-02,6.379700088501001620e-02,5.948399686813399256e-02,6.675399923324600027e-02,6.175699615478499882e-02,5.733100557327298896e-02,6.113399648666399677e-02,7.266999864578201074e-02,7.623600149154700911e-02,6.932499790191699873e-02,9.053800487518300077e-02,6.031200075149500961e-02,5.655800485610999739e-02,5.619299793243399954e-02,7.624600315094000325e-02,6.574499988555899954e-02,6.925700092315700829e-02,8.457800531387300869e-02,6.002999925613401733e-02,5.691800498962400201e-02,5.561000490188601486e-02,5.609399461746200632e-02,6.399000072479199552e-02,6.826199674606300838e-02,7.631999635696400108e-02,7.522700214385999451e-02,7.811099672317500797e-02,6.958799743652299696e-02,5.884199523925799646e-02,5.595300579071001146e-02,5.332850003242491088e-02,6.141300582885700354e-02,7.428800249099699882e-02,6.938499593734699655e-02,6.887100124359099573e-02,6.935500288009599501e-02,8.155000591278101230e-02,7.764499568939199625e-02,7.867499971389799174e-02,6.620099925994900325e-02,5.139770293235780552e-02,5.593400382995601661e-02,5.276509904861449718e-02,8.506299638748200664e-02,8.444099807739301189e-02,6.860299491882300427e-02,7.081200265884399214e-02,6.522800111770600540e-02,6.410600328445399676e-02,7.201400184631301382e-02,7.002499485015900582e-02,6.490199947357200294e-02,7.265500211715700263e-02,5.923999929428100386e-02,7.463599824905399471e-02,6.112699890136701064e-02,7.247399473190301034e-02,7.398499631881701177e-02,7.082399511337300613e-02,7.407700204849200498e-02,9.431599760055499326e-02
3.545740032196049996e-02,3.669770145416259566e-02,3.823820137977600175e-02,3.517449879646300515e-02,3.968750023841860486e-02,3.908340120315549615e-02,3.920979881286619506e-02,3.747799777984620051e-02,3.604150199890139572e-02,4.095290088653559535e-02,4.067960166931150479e-02,4.082680130004880115e-02,4.004980111122130593e-02,4.135160231590269408e-02,4.357819938659669712e-02,4.676729822158810779e-02,4.863649988174439942e-02,4.556510233879090821e-02,4.272929811477660378e-02,4.609650158882140636e-02,4.772289776802059180e-02,4.053579950332640569e-02,4.183680200576779529e-02,4.319680118560789706e-02,5.407200241088901127e-02,5.503600025176999533e-02,4.905860209465030819e-02,4.733360195159909412e-02,8.395200157165501331e-02,8.785000228881799378e-02,4.419809961318969804e-02,4.405630016326900211e-02,4.367519998550419003e-02,4.792340183258060604e-02,6.930699729919399810e-02,6.692799711227399861e-02,7.471000337600698649e-02,6.754099512100199265e-02,7.245799684524500961e-02,8.915599966049202185e-02,9.515099906921399564e-02,8.107699537277200663e-02,4.920050287246699461e-02,6.562799596786499101e-02,6.795900249481198752e-02,7.285199546814000171e-02,6.258700275421100190e-02,5.510399723053001353e-02,5.590700292587300058e-02,4.954020166397100911e-02,5.654600048065201723e-02,5.315509819984440276e-02,5.533999586105299573e-02,6.348599576950099410e-02,5.517299556732199739e-02,6.122500085830699657e-02,5.072700166702270863e-02,5.429499530792200601e-02,5.847399616241499842e-02,5.250819706916810825e-02,5.212750220298770221e-02,5.807299995422400551e-02,5.998100423812899318e-02,6.114800357818599152e-02,5.485599422454801033e-02,6.086399936676001321e-02,5.656799459457399759e-02,5.842600250244101012e-02,5.368730211257929930e-02,4.970080041885380218e-02,4.929770016670230459e-02,7.140700006485001250e-02,1.046600022315979789e-01,5.977600002288800674e-02,7.850699806213398690e-02,6.450399541854900942e-02,5.888200187683101383e-02,5.614699506759598946e-02,5.817100191116299224e-02,5.316980266571050273e-02,6.189799690246600150e-02,7.279999637603799811e-02,1.098830022811890100e-01,6.270000123977700901e-02,7.458800458908100561e-02,7.919600391387900118e-02,5.515499496460000983e-02,5.668800258636498557e-02,6.189699554443399421e-02,6.988499546051001043e-02,6.582899475097700459e-02,6.982800149917600674e-02,8.684399509429900632e-02,6.951400423049899913e-02,7.337999725341799728e-02,1.063090004920960036e-01,8.019400024414101436e-02,5.126139903068539783e-02,4.965730094909670544e-02,5.539299631118800582e-02,5.646399641037000428e-02,7.925500059127800478e-02,8.661200189590499698e-02,6.511899614334100417e-02,7.137699508667001702e-02,7.753600263595601672e-02,7.157500171661398958e-02,6.988699817657499647e-02,6.540500307083101095e-02,6.456400537490800118e-02,6.515900278091399378e-02,5.602000141143800849e-02,7.096200370788600942e-02,6.003699684143100346e-02,7.354200267791699552e-02,7.917900466918902092e-02,7.976199769973800480e-02,8.790799760818500397e-02,7.995599889755299061e-02
3.194200181961059926e-02,3.744560265541080346e-02,3.863230133056640148e-02,3.138990187644959129e-02,3.948870086669920010e-02,4.075280213356020920e-02,3.148749852180479647e-02,3.213119888305659977e-02,3.598630213737490091e-02,3.866759920120239891e-02,3.598090195655820334e-02,3.689859890937809139e-02,3.847080254554749446e-02,3.852950119972230192e-02,4.160970234870910167e-02,4.520119810104369917e-02,4.288859748840330444e-02,4.139799857139589423e-02,4.199870014190680567e-02,4.035640144348140446e-02,3.959229969978329822e-02,3.864369773864750890e-02,4.123980188369749666e-02,4.196300292015080202e-02,4.542180085182190297e-02,4.669499778747560059e-02,4.641459965705869994e-02,5.258829975128170853e-02,5.284179830551150037e-02,4.748369836807249389e-02,4.231149935722350319e-02,4.447999978065489413e-02,4.265820169448850119e-02,4.721410059928889125e-02,4.675299906730659427e-02,4.116989755630490189e-02,5.390929961204529719e-02,5.265239858627319969e-02,5.043989801406860429e-02,5.664500379562399657e-02,8.033099555969201722e-02,6.609399700164798885e-02,5.079059982299810594e-02,5.373099827766419923e-02,6.255000019073499173e-02,5.834800386428799779e-02,6.038799667358400736e-02,5.403299713134798732e-02,5.255759739875789927e-02,5.110879921913150103e-02,4.819270157814030398e-02,4.773760223388669177e-02,5.635799551010101105e-02,6.112699890136701064e-02,6.307000303268399388e-02,4.887990140914920401e-02,4.446009778976441063e-02,4.657770180702210105e-02,4.865029835700990235e-02,5.000009918212890148e-02,4.277639770507810080e-02,4.914939785003659412e-02,5.209759855270380824e-02,5.588900232315098526e-02,5.183620238304140204e-02,5.438700103759798454e-02,5.303920292854309715e-02,5.306349778175349641e-02,4.488339805603029642e-02,4.401950025558469537e-02,4.724510097503660522e-02,8.431599521636999606e-02,6.101500177383401002e-02,4.755229735374449929e-02,6.388700389862100870e-02,5.587799930572501239e-02,5.571600580215500809e-02,5.673900032043499575e-02,7.590899848938000016e-02,5.598800563812300624e-02,6.146699571609499924e-02,9.517799997329699779e-02,6.707599544525100210e-02,6.016600513458300603e-02,5.411800527572600827e-02,6.023600482940701106e-02,5.439900541305499326e-02,5.539900445938099327e-02,5.644100093841598886e-02,5.586799764633200438e-02,5.129160070419309936e-02,5.430900239944499996e-02,6.754199647903399994e-02,7.634799861907999585e-02,7.404300355911298814e-02,6.314399623870900480e-02,7.659700298309299327e-02,5.385830187797549518e-02,5.182080054283140502e-02,4.661710047721859262e-02,6.542100095748899780e-02,7.693200492858899564e-02,6.858400487899800335e-02,6.047200345992999326e-02,6.098599815368699328e-02,6.054699802398699759e-02,7.024599695205699379e-02,9.260900402069101311e-02,8.868400239944500274e-02,5.650099897384598668e-02,5.645100259780899687e-02,5.145879769325259478e-02,5.976800107955899943e-02,5.562299871444699451e-02,6.143399858474700437e-02,6.564499521255499903e-02,6.462200069427499749e-02,6.601000213622999768e-02,7.280899667739899883e-02
3.328490042686460537e-02,4.285430097579960573e-02,3.701140069961550427e-02,3.243760251998900612e-02,3.697669887542720524e-02,3.372900271415710249e-02,3.490609908103939341e-02,3.508649849891661010e-02,3.465199851989750335e-02,3.606610083580021053e-02,4.011310124397279853e-02,3.541189813613890291e-02,3.482470297813419768e-02,3.550410056114200463e-02,3.738260054588320169e-02,4.006330156326289027e-02,3.779700183868410501e-02,3.864549779891969516e-02,3.927839779853820046e-02,3.866249704360959216e-02,3.823929810523990502e-02,3.767769718170170534e-02,3.891669893264770863e-02,3.971929931640630351e-02,4.251780295372011020e-02,4.152769827842710260e-02,4.270639801025390148e-02,5.168279790878300972e-02,6.256599807739300634e-02,4.596460247039800551e-02,4.495469713211060203e-02,4.170660161972050695e-02,4.159490251541139716e-02,4.139939928054810203e-02,3.835090184211729925e-02,5.019799852371220616e-02,4.461490297317510789e-02,3.973970198631289474e-02,3.650989913940429210e-02,5.177299761772159725e-02,6.592300319671599851e-02,5.542799615860001528e-02,4.624969744682309869e-02,4.617849969863890847e-02,5.078270220756529729e-02,5.224140071868900448e-02,6.762500190734900551e-02,5.099069857597350597e-02,4.668680214881899826e-02,4.687639856338500499e-02,4.745600008964540040e-02,4.986150050163269676e-02,5.488100433349600571e-02,5.321810030937200453e-02,4.170959973335271187e-02,3.797740125656130783e-02,3.694990062713619794e-02,4.329690122604369640e-02,4.882259750366209350e-02,4.481770181655880814e-02,3.550020241737369964e-02,3.810869836807249944e-02,4.333849930763240821e-02,4.802350187301640538e-02,4.657739782333369938e-02,4.860899829864499810e-02,4.857560181617739947e-02,4.594160103797910455e-02,4.566070222854609617e-02,5.310249710083010666e-02,4.241180205345160270e-02,5.100549840927119660e-02,4.611710095405580079e-02,6.560800457000699748e-02,8.701199674606301115e-02,6.590400123596200366e-02,4.520860099792479991e-02,8.672500038147000490e-02,5.491899633407600068e-02,5.335770034790039695e-02,5.719199562072800613e-02,6.549400472640999615e-02,6.174099826812699809e-02,5.409000301361099883e-02,5.035630249977109119e-02,5.198460006713870318e-02,5.558100128173799892e-02,4.927819752693179955e-02,4.927099728584290184e-02,6.573700094223000612e-02,4.954679989814760044e-02,4.972100043296809324e-02,5.212380075454710326e-02,4.991630101203919923e-02,6.867599868774400262e-02,6.757500553131098875e-02,5.898199462890600653e-02,4.958380246162409632e-02,5.124519848823549939e-02,4.980090045928960152e-02,5.538399600982699122e-02,6.930599594116200468e-02,5.368460202217099908e-02,5.122819924354550525e-02,7.096599721908600222e-02,1.135420002937320011e-01,9.304600143432599502e-02,7.038100147247298988e-02,9.075299882888800129e-02,5.829999828338601475e-02,9.932999992370601661e-02,8.847099924087499512e-02,1.187300004959109950e-01,9.040700578689599143e-02,5.380480074882509900e-02,5.619999551773099955e-02,5.901199960708600201e-02,6.215999507904099164e-02,7.092500114440900005e-02
3.339500212669370416e-02,3.888469719886779308e-02,4.003150248527530264e-02,2.996949934959410033e-02,4.346380019187930099e-02,5.299550080299379740e-02,4.737289929389949805e-02,4.648440265655519321e-02,5.666499519348100478e-02,5.428599500656099142e-02,4.318009996414180762e-02,3.768880152702330788e-02,3.310280227661129004e-02,3.481899881362919558e-02,3.430430078506470359e-02,3.655640268325810460e-02,3.575690174102780228e-02,3.418320202827450360e-02,3.568089985847469614e-02,3.415689849853520421e-02,3.596600079536439731e-02,3.572280192375179575e-02,3.900980138778689654e-02,3.912359857559200016e-02,3.798249745368960373e-02,3.805680060386659735e-02,3.932990217208860717e-02,4.517599725723270288e-02,5.510599994659400036e-02,3.968570017814639084e-02,3.939239764213560424e-02,3.835540199279789675e-02,3.906760001182559006e-02,4.021900081634520452e-02,3.764049792289729524e-02,3.968699955940249713e-02,3.640630030632020786e-02,3.822129750251769542e-02,4.166710162162780284e-02,5.202479743957519331e-02,4.768140101432800926e-02,5.295520210266109473e-02,4.152650022506720884e-02,4.485109829902650391e-02,4.894969844818120031e-02,5.307019734382630027e-02,6.498300218582199472e-02,5.472799921035799431e-02,4.178089880943298973e-02,4.373069787025450628e-02,4.327180171012880161e-02,4.424580121040340430e-02,5.287530207633969748e-02,5.085609936714170776e-02,4.035119795799259335e-02,3.302820110321050273e-02,3.335400009155270462e-02,3.377700233459469958e-02,3.767589712142939418e-02,3.640739703178409725e-02,3.114319825172419398e-02,3.223489904403689654e-02,3.789440178871160414e-02,3.915319824218750633e-02,4.432829999923711128e-02,4.101419830322269866e-02,4.351140046119690574e-02,4.489949727058409334e-02,4.632050180435179354e-02,4.900970244407650001e-02,3.964079999923710018e-02,4.363639736175541073e-02,5.253910207748409278e-02,9.786500120162998362e-02,8.756900215148898103e-02,5.642700576782200272e-02,5.744899892806999697e-02,8.420000457763700263e-02,5.923500442504900376e-02,4.676990294456480346e-02,4.777750158309940209e-02,5.129729890823360450e-02,5.930300140380899421e-02,4.671979928016660455e-02,4.203229928016660732e-02,4.443779969215390369e-02,4.617770099639890991e-02,3.971270108222960116e-02,4.379439735412600510e-02,4.502969765663150659e-02,4.438680195808410167e-02,4.103619837760930089e-02,4.920159959793089788e-02,4.731930279731751121e-02,6.160099887847900191e-02,5.126539850234980433e-02,4.688190007209780408e-02,4.519510054588320169e-02,4.379870080947879940e-02,4.843439841270449908e-02,4.377580070495609710e-02,6.581499958038299070e-02,5.327759766578669953e-02,4.799960041046140435e-02,4.882499957084660003e-02,5.153590226173400402e-02,5.000840210914610229e-02,5.247940206527709761e-02,5.711199426651000777e-02,5.284650111198420375e-02,5.697600030898998524e-02,5.254030013084411144e-02,5.681900167465200879e-02,7.988599920272800026e-02,6.193000459671001157e-02,6.727699422836298793e-02,6.703800344467200634e-02,6.137600326538099338e-02,5.685199880600000366e-02
2.598439836502079714e-02,3.461410188674930721e-02,3.166219973564150802e-02,2.614800119400019496e-02,3.390009784698490292e-02,3.383719706535340266e-02,3.763509774208069480e-02,4.039209866523740811e-02,3.800319814682009967e-02,3.185779833793640770e-02,4.325870060920719573e-02,3.112510228157040759e-02,3.445690059661869753e-02,3.306810045242310203e-02,3.531570219993590554e-02,3.478799843788150936e-02,3.183780097961430577e-02,2.893839859962460404e-02,3.131360197067259432e-02,3.345719957351679652e-02,3.375400090217590965e-02,3.663409733772279853e-02,3.626140141487120550e-02,3.906230115890509114e-02,4.141859793663030254e-02,3.937129759788510208e-02,4.084890270233150489e-02,3.571659708023069979e-02,3.815690064430239670e-02,3.838019752502440374e-02,3.925440096855160876e-02,3.907239818573000900e-02,3.759130024909969336e-02,3.938089990615840918e-02,3.728859806060789983e-02,3.838169956207279632e-02,4.353890204429629318e-02,3.355639958381649579e-02,3.557719969749449651e-02,3.731339955329900093e-02,4.233739757537839654e-02,4.021810078620909057e-02,4.097699904441830243e-02,4.163629794120789207e-02,4.295980119705200551e-02,4.719919943809509910e-02,4.385419869422910177e-02,4.131070160865780994e-02,3.905529761314389947e-02,4.054159903526309561e-02,4.117830181121830135e-02,4.889449858665469162e-02,4.443480157852169876e-02,3.782200002670289829e-02,3.368869805336000001e-02,2.916469955444341011e-02,2.713410043716429909e-02,3.280219817161560136e-02,3.067390108108521141e-02,3.077379846572880773e-02,2.797199869155890528e-02,2.731039905548089675e-02,2.975820088386529894e-02,2.854370260238649204e-02,3.204179787635799692e-02,4.115869784355159766e-02,4.444970273971550478e-02,4.120859885215760743e-02,4.331559920310969203e-02,4.189740204811100155e-02,4.310539746284490492e-02,4.746129894256589932e-02,4.996189856529240081e-02,4.879420185089110296e-02,5.173359894752500854e-02,4.507720255851739577e-02,6.065299892425499162e-02,7.463499689102200130e-02,5.250379824638369552e-02,4.620780134201049605e-02,3.967029833793640770e-02,4.035619878768920143e-02,4.221679949760440143e-02,3.932680273056030074e-02,3.500860118865969928e-02,4.294330263137820236e-02,4.230720186233520586e-02,3.567150020599370308e-02,3.543500089645390538e-02,4.309440040588380372e-02,3.760310196876530398e-02,3.559480094909669989e-02,3.806540155410770288e-02,4.912839913368229061e-02,5.192799949646000057e-02,4.777260208129879837e-02,4.594899797439579159e-02,4.074470186233521141e-02,5.440299892425499995e-02,4.082420253753660244e-02,4.904269957542420344e-02,6.924000167846700027e-02,4.496329808235169367e-02,3.995200181007389773e-02,4.422060036659239413e-02,5.389650249481199584e-02,4.634629869461059926e-02,5.711299562454198731e-02,5.124289774894709437e-02,5.020640277862549461e-02,4.430299782752990245e-02,4.313210034370419665e-02,4.722980046272269583e-02,5.479200267791699275e-02,5.165970110893249034e-02,5.328820133209229148e-02,5.454299831390400921e-02,7.723600053787200992e-02,5.089109921455380048e-02
1.767800235748290261e-02,1.789719843864440163e-02,1.510200285911560136e-02,1.244320058822629554e-02,2.399390125274659946e-02,2.256219768524170277e-02,2.332989954948429256e-02,2.618999862670899625e-02,2.418290162086490780e-02,2.278719925880430541e-02,2.361380243301390569e-02,2.704279804229739459e-02,3.047259831428529575e-02,3.240960025787349708e-02,3.082030200958249533e-02,3.011439824104310270e-02,2.788470172882080711e-02,2.778519773483280331e-02,2.983640217781070858e-02,3.825049781799309823e-02,4.177589797973629837e-02,3.900249981880189731e-02,3.882000231742860352e-02,4.325269842147830279e-02,3.949389839172359751e-02,4.264300251007080433e-02,4.661990189552310537e-02,5.160730266571050828e-02,5.591999673843399410e-02,7.222400093078600036e-02,5.869800233840900827e-02,4.707159781455989844e-02,4.019949817657469948e-02,3.925999784469599851e-02,4.993409895896910866e-02,3.913439893722529817e-02,3.289590263366699852e-02,3.107440257072449641e-02,2.874939823150630958e-02,3.235770249366760887e-02,3.178379917144780187e-02,3.547090077400209818e-02,3.813230180740349862e-02,3.759310030937190739e-02,3.706189775466919856e-02,4.308320069313049949e-02,3.969719791412350263e-02,3.548339986801149482e-02,3.657409930229189865e-02,3.956219935417179534e-02,3.859920287132259653e-02,3.652840042114259556e-02,3.285079979896550484e-02,3.222600007057190019e-02,2.852520132064820246e-02,2.249719882011409766e-02,2.342530274391180223e-02,2.891859793663030531e-02,3.408700013160710640e-02,2.569229984283449841e-02,2.190609955787660434e-02,2.286829733848569357e-02,2.276729726791379416e-02,2.478279852867129596e-02,2.840419793128969028e-02,2.906999969482419732e-02,3.868999862670899348e-02,3.691069865226749569e-02,3.479590201377870395e-02,3.559019947052000088e-02,3.759879851341249579e-02,4.392360234260560270e-02,4.376200222969059417e-02,5.341999912261959083e-02,4.521620059013370385e-02,5.897800111770601372e-02,5.240189814567570992e-02,5.222750091552730289e-02,5.136070036888119861e-02,4.452349925041200474e-02,3.936009788513179786e-02,3.503910088539120837e-02,3.932249927520749255e-02,3.410600209236148983e-02,3.471650266647340055e-02,4.967869901657100129e-02,4.041759753227240626e-02,3.306079888343810280e-02,3.013199949264529220e-02,3.137119793891909869e-02,3.099189782142640348e-02,3.211310291290279950e-02,3.800959968566890168e-02,5.142199778556820478e-02,5.767399454116799162e-02,4.224430108070370560e-02,4.583359742164609674e-02,4.563849949836730480e-02,4.683909797668460440e-02,3.821810269355770118e-02,4.883919739723199815e-02,4.383020186424259335e-02,4.249459886550900622e-02,3.474989914894099918e-02,3.742469930648800736e-02,3.800599956512450139e-02,3.757099890708920364e-02,4.436359786987310871e-02,5.021980190277099132e-02,4.427749896049500145e-02,4.366569900512699831e-02,4.240489983558660969e-02,4.410300040245059006e-02,4.773160004615779883e-02,5.642999792098998824e-02,5.228789830207830613e-02,5.232609891891479292e-02,5.024630212783810779e-02,4.503950262069700283e-02
1.156689906120300648e-02,1.166580104827880104e-02,1.392349982261659874e-02,9.695998668670699483e-03,1.200750255584720483e-02,1.110179805755619892e-02,1.880110287666320046e-02,2.097819828987119994e-02,2.677899980545049574e-02,1.778790140151979837e-02,1.443319702148439937e-02,2.554560089111330978e-02,2.479859972000120205e-02,2.993160271644590420e-02,2.177359843254091099e-02,1.649909996986390071e-02,2.132789874076840286e-02,2.605749750137330290e-02,3.187809967994689742e-02,2.918749833106989988e-02,2.779040122032169768e-02,2.697530174255370616e-02,3.542489790916439341e-02,4.025000119209289073e-02,3.776659750938420046e-02,4.028039956092829832e-02,4.133299970626830300e-02,3.040179991722109787e-02,3.179669761657720473e-02,4.719000244140619804e-02,4.342959904670719296e-02,5.039620184898380151e-02,4.033930087089539207e-02,3.832180285453790081e-02,3.776460075378419712e-02,3.482209825515750201e-02,3.440630221366880459e-02,3.205830240249640806e-02,2.620770120620730115e-02,4.040130162239080613e-02,2.951469802856450386e-02,3.193269753456119686e-02,3.387350225448609864e-02,3.391849780082700772e-02,3.408949756622310645e-02,3.868229770660400191e-02,3.545989775657650001e-02,3.309610271453859720e-02,4.050479912757870560e-02,3.629150176048280552e-02,3.435609722137450417e-02,2.973009729385379940e-02,2.677460098266599975e-02,2.634820127487180752e-02,2.039249920845029318e-02,2.386830234527589911e-02,2.520680212974549250e-02,2.279600286483769722e-02,3.069389843940741047e-02,2.416549706459049374e-02,2.126899743080140626e-02,2.044359827041630773e-02,2.295030140876770652e-02,1.849369788169859252e-02,2.222590231895450741e-02,2.748510026931760830e-02,2.693459773063659746e-02,2.973900222778320945e-02,2.818760061264040384e-02,3.141569876670839701e-02,2.430850052833560815e-02,3.161049866676329811e-02,3.605289840698240600e-02,3.674199962615970483e-02,5.348099851608280331e-02,3.967259907722470169e-02,4.286449933052059735e-02,4.730390095710750031e-02,3.697100067138670010e-02,4.464810276031490333e-02,3.426829957962039541e-02,2.886780285835270632e-02,3.441769862174989814e-02,3.343789958953859165e-02,3.121629738807681076e-02,3.592899823188779040e-02,3.227050089836119851e-02,3.131310129165650047e-02,2.995270276069640636e-02,3.357429885864260388e-02,3.499750280380249656e-02,3.440750026702879549e-02,4.119980120658869871e-02,4.258150243759159514e-02,4.141049766540529087e-02,4.275889778137210995e-02,4.341940069198609031e-02,4.287670040130620031e-02,3.497220063209530161e-02,3.226600074768069815e-02,3.255960130691530618e-02,3.517390275001530675e-02,3.153289937973020873e-02,2.805940294265750479e-02,3.067689919471740245e-02,2.900529885292049692e-02,3.180640125274659946e-02,3.427660250663759622e-02,3.684929990768430474e-02,3.861380004882809802e-02,3.336329841613769331e-02,3.826629900932310147e-02,4.497080230712889592e-02,4.850690150260929256e-02,4.870059871673579344e-02,4.284239792823790749e-02,4.312690281867979925e-02,4.397679948806761108e-02,3.875099802017209494e-02
2.588401079177904407e-03,1.203992366791001301e-04,3.203699827194206318e-03,-2.999999999999999889e-01,9.138701200485196963e-03,2.810699582099895899e-03,4.467300415039093808e-03,4.621300935745198402e-03,3.437001347541795981e-03,4.092601776123104551e-03,1.345190191268919727e-02,6.563601732253995791e-03,9.395901203155497539e-03,2.258410239219670046e-02,1.567089939117430331e-02,1.261939787864689577e-02,1.092399740219119481e-02,1.712800049781799949e-02,1.867829942703250201e-02,2.080520176887509787e-02,1.304470086097719861e-02,1.974590206146240035e-02,2.170520210266109473e-02,2.934350156784060193e-02,2.399700069427490590e-02,1.705350065231320267e-02,1.295860195159909828e-02,1.149890208244320339e-02,1.334590101242069671e-02,1.954160118103029364e-02,3.265800261497499302e-02,3.377529764175420113e-02,2.518570208549499034e-02,1.854420089721679765e-02,2.611520075798030860e-02,2.790810251235960326e-02,2.841710233688350684e-02,3.306919717788699142e-02,3.080379748344420909e-02,3.064870023727420123e-02,1.907949829101560080e-02,2.251710081100470606e-02,2.700410270690919989e-02,2.610770249366760332e-02,2.916459822654719758e-02,3.439119839668279555e-02,3.190089845657349821e-02,3.355849766731260064e-02,3.447149777412410188e-02,3.089009904861450551e-02,2.746180081367489978e-02,2.129390025138860887e-02,2.068390035629270873e-02,2.287819766998290538e-02,2.306710267066959530e-02,2.249319934844969116e-02,2.327220225334170056e-02,2.372029805183409334e-02,2.509389901161190872e-02,2.355980062484740178e-02,2.130430126190190065e-02,2.183720254898070812e-02,2.077790284156801059e-02,2.084939861297609165e-02,1.809789919853210804e-02,2.590909981727600175e-02,1.324819707870480284e-02,9.916899442672696963e-03,1.398150110244750222e-02,1.439620041847230331e-02,1.059769773483279498e-02,1.440019989013669593e-02,2.579160118103029919e-02,3.548660063743590276e-02,2.483820104599000766e-02,2.021810197830199718e-02,2.937580132484440831e-02,3.123000049591059812e-02,3.007370018959050484e-02,2.520339870452879827e-02,2.772059822082519054e-02,2.402589702606200417e-02,1.222119712829589783e-02,2.991879963874820303e-02,2.496840143203739315e-02,2.752229952812200453e-02,2.719549918174740677e-02,2.692870283126830300e-02,2.040080213546749399e-02,3.204149985313410609e-02,3.369359755516050658e-02,3.676180028915410070e-02,4.014779710769650345e-02,3.652810239791870472e-02,3.578089857101440785e-02,3.756400132179260609e-02,3.816100144386290471e-02,3.778270268440249435e-02,3.420460009574889659e-02,2.854850077629091099e-02,2.509400033950810738e-02,2.890310072898870375e-02,2.396999979019169558e-02,2.191809797286989325e-02,2.742690229415890857e-02,2.568189883232120663e-02,2.518579745292660876e-02,2.902949833869940266e-02,2.790270233154300283e-02,3.220460200309750720e-02,2.930339956283570246e-02,2.845030212402339942e-02,4.395440006256100263e-02,3.668110156059269100e-02,3.482550168037409910e-02,3.896819734573360450e-02,3.765479707717900304e-02,3.394899749755860008e-02,3.598260068893430197e-02
-2.999999999999999889e-01,2.902009487152010236e-04,-2.999999999999999889e-01,-2.999999999999999889e-01,-2.999999999999999889e-01,-2.999999999999999889e-01,1.459399700164801250e-03,7.007900714874303050e-03,2.243901133537298809e-03,-2.999999999999999889e-01,-2.999999999999999889e-01,-2.999999999999999889e-01,-2.999999999999999889e-01,-2.999999999999999889e-01,6.075898647308404510e-03,1.113229775428770107e-02,5.177400350570703080e-03,5.840001344680795237e-03,8.434400796890305363e-03,6.922999858856200561e-03,7.733998537063600798e-03,4.369000434875501548e-03,1.591329956054689937e-02,1.336070084571839428e-02,1.745790028572080654e-02,6.588897943496707654e-03,4.697398185730006226e-03,9.876100063323997591e-03,8.655098915100099821e-03,1.881379866600040029e-02,2.265720152854920622e-02,2.184930229187009854e-02,1.617709779739379822e-02,8.777097702026399884e-03,2.058380031585689551e-02,2.054850244522100911e-02,1.865939879417420622e-02,2.657390022277829333e-02,2.147410297393799461e-02,2.493039751052859854e-02,1.937430286407469671e-02,2.302790069580080978e-02,1.871239924430850854e-02,2.085410141944889217e-02,2.649019742012029277e-02,3.286580228805539849e-02,3.293139719963070200e-02,2.823200011253360064e-02,2.992350244522100355e-02,2.444159770011899990e-02,1.839120173454290852e-02,1.752990269660949230e-02,1.768520259857180033e-02,2.011469984054570226e-02,2.154069924354549970e-02,2.093090200424189973e-02,2.242619776725769676e-02,2.624360108375550782e-02,2.777820014953609473e-02,2.615710282325740821e-02,3.065320038795470159e-02,3.749789977073671177e-02,2.733739995956420421e-02,2.662709736824039886e-02,2.720780158042909735e-02,2.129519963264470128e-02,4.594300031662001960e-03,1.127159976959229981e-02,-2.999999999999999889e-01,-2.999999999999999889e-01,-2.999999999999999889e-01,-2.999999999999999889e-01,-2.999999999999999889e-01,1.888929986953739870e-02,1.261359834671020586e-02,-2.999999999999999889e-01,8.613602161407503399e-03,7.047901391982996921e-03,1.563409948349000350e-02,5.104301214218093241e-03,7.076899051666307727e-03,4.975799560546896594e-03,6.390897274017301455e-03,6.140402793884301713e-03,8.109001159668005609e-03,2.214240217208859884e-02,7.035598993301403481e-03,1.580049777030950731e-02,3.902439856529239803e-02,3.139289999008179621e-02,3.078049802780150057e-02,3.454400086402889536e-02,3.428900027275090523e-02,3.082679891586299903e-02,3.035359764099120061e-02,3.403129959106450386e-02,3.221050286293029863e-02,3.154210233688349574e-02,3.144089961051939330e-02,2.574640297889708995e-02,2.291940236091610794e-02,2.217229986190800972e-02,2.209039711952209828e-02,2.087020063400270298e-02,2.128100180625920601e-02,2.216939711570739546e-02,2.306939744949339233e-02,2.089969897270201049e-02,2.181679987907410301e-02,2.323710107803350633e-02,2.302890205383299749e-02,2.162449741363529909e-02,2.775540137290950782e-02,2.802319908142089644e-02,2.703439974784850597e-02,3.332149767875670909e-02,2.936910176277159057e-02,2.904130005836490225e-02,3.304430031776429966e-02
-2.999999999999999889e-01,-2.999999999999999889e-01,-2.999999999999999889e-01,-2.999999999999999889e-01,-2.999999999999999889e-01,-2.999999999999999889e-01,-2.999999999999999889e-01,-2.999999999999999889e-01,-2.999999999999999889e-01,-2.999999999999999889e-01,-2.999999999999999889e-01,-2.999999999999999889e-01,-2.999999999999999889e-01,-2.999999999999999889e-01,-2.999999999999999889e-01,-2.999999999999999889e-01,7.209011316298974403e-04,4.770097970962505762e-03,9.258601903915406051e-03,-2.999999999999999889e-01,-2.999999999999999889e-01,-2.999999999999999889e-01,-2.999999999999999889e-01,1.961398959159900424e-03,-2.999999999999999889e-01,-2.999999999999999889e-01,2.978701233863796649e-03,9.323992729187019490e-04,8.628098011016903379e-03,1.545460009574890076e-02,1.551940226554869573e-02,1.396739864349369475e-02,5.548898220062298270e-03,4.218498706817605526e-03,6.366298437118500519e-03,6.470499277114905023e-03,1.427569770812990579e-02,9.900299549102806185e-03,8.473000764846805311e-03,3.135398864746098690e-03,5.735299825668303819e-03,1.399150276184080166e-02,1.098369741439820385e-02,2.175749921798710018e-02,2.160169863700869830e-02,2.634820127487180752e-02,2.957280063629150191e-02,1.727599883079529441e-02,2.654610061645509833e-02,2.087449812889100031e-02,1.579900169372559782e-02,1.770689868927000088e-02,1.869370126724240189e-02,1.274220132827760116e-02,2.217119717597960948e-02,2.264830255508419599e-02,2.179220104217530207e-02,2.738370084762570267e-02,2.512140059471131004e-02,2.659569764137270642e-02,2.514350199699399990e-02,2.285110139846799338e-02,2.836460256576540939e-02,2.934769773483279776e-02,1.920389914512629637e-02,1.270940089225770092e-02,1.188080096244809730e-02,-2.999999999999999889e-01,-2.999999999999999889e-01,-2.999999999999999889e-01,-2.999999999999999889e-01,-2.999999999999999889e-01,-2.999999999999999889e-01,-2.999999999999999889e-01,-2.999999999999999889e-01,-2.999999999999999889e-01,-2.999999999999999889e-01,-2.999999999999999889e-01,-2.999999999999999889e-01,-2.999999999999999889e-01,-2.999999999999999889e-01,-2.999999999999999889e-01,-2.999999999999999889e-01,-2.999999999999999889e-01,4.444011449813989323e-04,1.206149840354920483e-02,1.821300172805789819e-02,2.519339704513549882e-02,3.625470185279849877e-02,3.263399982452390435e-02,3.475590133666990600e-02,3.487390065193179955e-02,3.237870121002199564e-02,2.822590255737310316e-02,3.123230123519900314e-02,3.614539885520939855e-02,3.703340077400209263e-02,3.436519885063170354e-02,3.043520236015319347e-02,2.727179908752440374e-02,2.234779977798459494e-02,2.142330193519589865e-02,1.914999866485600499e-02,1.916209840774539541e-02,2.000000262260440143e-02,2.029670262336730202e-02,2.084070229530339546e-02,2.386920237541199918e-02,2.415269994735720627e-02,2.791110062599179431e-02,2.396610164642329344e-02,2.179900193214419357e-02,2.521059894561769599e-02,2.212120079994200905e-02,2.255570077896119907e-02,2.421970152854920066e-02,2.529369974136350119e-02,2.789810085296630382e-02,3.224079990386959083e-02
-2.999999999999999889e-01,-2.999999999999999889e-01,-2.999999999999999889e-01,-2.999999999999999889e-01,-2.999999999999999889e-01,-2.999999999999999889e-01,-2.999999999999999889e-01,-2.999999999999999889e-01,-2.999999999999999889e-01,-2.999999999999999889e-01,-2.999999999999999889e-01,-2.999999999999999889e-01,-2.999999999999999889e-01,-2.999999999999999889e-01,-2.999999999999999889e-01,-2.999999999999999889e-01,-2.999999999999999889e-01,-2.999999999999999889e-01,-2.999999999999999889e-01,-2.999999999999999889e-01,-2.999999999999999889e-01,-2.999999999999999889e-01,7.346300125122107172e-03,-2.999999999999999889e-01,-2.999999999999999889e-01,-2.999999999999999889e-01,1.014002561569027350e-04,-2.999999999999999889e-01,7.214097023010297705e-03,9.440098047256505198e-03,-2.999999999999999889e-01,-2.999999999999999889e-01,-2.999999999999999889e-01,7.817802667617800016e-03,1.045859837532039927e-02,1.140879774093630367e-02,1.442879819869999358e-02,1.037599825859070179e-02,5.488500833511399113e-03,8.017400741577203338e-03,-2.999999999999999889e-01,4.967995882034018096e-04,2.814401030540501780e-03,1.241130018234249538e-02,1.835419917106630161e-02,2.517739915847780341e-02,2.256060028076169177e-02,2.097469949722290117e-02,2.160860085487370519e-02,1.725259804725649826e-02,1.519989752769470431e-02,1.386940264701840009e-02,1.361009860038759484e-02,1.028229975700379467e-02,1.373659753799439526e-02,1.517129921913150381e-02,1.728859925270079256e-02,2.313779973983770555e-02,2.163240098953250756e-02,1.979430103302000366e-02,2.030589962005620308e-02,2.087669754028320668e-02,3.276849770545960105e-02,2.260700249671940276e-02,1.894349837303160866e-02,1.281980061531070442e-02,1.924900054931601157e-03,-2.999999999999999889e-01,-2.999999999999999889e-01,-2.999999999999999889e-01,-2.999999999999999889e-01,-2.999999999999999889e-01,-2.999999999999999889e-01,-2.999999999999999889e-01,-2.999999999999999889e-01,-2.999999999999999889e-01,-2.999999999999999889e-01,-2.999999999999999889e-01,-2.999999999999999889e-01,-2.999999999999999889e-01,-2.999999999999999889e-01,-2.999999999999999889e-01,-2.999999999999999889e-01,-2.999999999999999889e-01,-2.999999999999999889e-01,2.064601421356199173e-03,6.308297157287597046e-03,1.501830005645749672e-02,1.720580244064330577e-02,2.591969752311709674e-02,2.858050251007079878e-02,2.433600211143489844e-02,2.275900030136109031e-02,2.407210254669189808e-02,2.875739717483520586e-02,2.974509978294370693e-02,3.259600186347960671e-02,3.143030190467829832e-02,2.533730053901669943e-02,2.231499934196469470e-02,2.292579793930051013e-02,2.201509857177730289e-02,2.885619783401489891e-02,3.162910127639770308e-02,2.976450109481811046e-02,2.559410119056700073e-02,3.076510214805600052e-02,3.042740011215210039e-02,3.001820230484010532e-02,3.704669857025150170e-02,3.717949771881100263e-02,3.383229756355289608e-02,3.340440177917480824e-02,3.291790270805360075e-02,2.455990099906919799e-02,3.189109945297240178e-02,3.065539979934690795e-02,2.262229704856870416e-02,2.395919942855841145e-02
